1734
-0.000451 0.015500 0.018500
-0.000500 0.015517 0.018500
-0.000750 0.015558 0.018500
-0.000500 0.015500 0.018451
0.000250 0.015569 0.019750
0.000538 0.015500 0.019500
0.000500 0.015513 0.019500
0.000250 0.015556 0.019500
0.000546 0.015250 0.019250
0.000500 0.015500 0.019461
0.000500 0.015357 0.019250
0.000298 0.015500 0.019250
0.000250 0.015517 0.019250
0.000500 0.015192 0.019000
0.000500 0.015250 0.019113
0.000388 0.015250 0.019000
0.000250 0.015500 0.019202
0.000250 0.015358 0.019000
0.000250 0.015250 0.018954
0.000250 0.015078 0.018750
0.000046 0.015250 0.018750
0.000000 0.015192 0.018500
0.000000 0.015250 0.018612
-0.000112 0.015250 0.018500
-0.000250 0.015250 0.018454
-0.001500 0.015573 0.018250
-0.001750 0.015581 0.018250
-0.001955 0.015750 0.018250
-0.002500 0.016073 0.018750
-0.002500 0.016056 0.018500
-0.002240 0.016000 0.018250
-0.002250 0.016003 0.018250
-0.002500 0.016027 0.018250
-0.002000 0.015688 0.018000
-0.002000 0.015750 0.018120
-0.002152 0.015750 0.018000
-0.002250 0.016000 0.018242
-0.002250 0.015813 0.018000
-0.002500 0.016000 0.018178
-0.001000 0.015556 0.018250
-0.001250 0.015569 0.018250
-0.000960 0.015500 0.018000
-0.001000 0.015513 0.018000
-0.001250 0.015546 0.018000
-0.001500 0.015555 0.018000
-0.001750 0.015566 0.018000
-0.001000 0.015500 0.017962
-0.001241 0.015500 0.017750
-0.001250 0.015503 0.017750
-0.001500 0.015527 0.017750
-0.001250 0.015500 0.017742
-0.001500 0.015500 0.017678
-0.001750 0.015539 0.017750
-0.002000 0.015560 0.017750
-0.002250 0.015750 0.017971
-0.001750 0.015500 0.017631
-0.001931 0.015500 0.017500
-0.004500 0.016341 0.018250
-0.003750 0.016056 0.018000
-0.005500 0.016553 0.019000
-0.005250 0.016535 0.018750
-0.005250 0.016500 0.018642
-0.005047 0.016500 0.018500
-0.005250 0.016403 0.018500
-0.005250 0.016250 0.018437
-0.005041 0.016250 0.018250
-0.005250 0.016081 0.018250
-0.005500 0.016074 0.018250
-0.005250 0.016067 0.018000
-0.005500 0.016057 0.018000
-0.005500 0.016032 0.017750
-0.005500 0.016000 0.017664
-0.005750 0.016029 0.017750
-0.005750 0.016000 0.017674
-0.006000 0.015853 0.017500
-0.007528 0.015750 0.018750
-0.007250 0.015558 0.018000
-0.007500 0.015557 0.018250
-0.007000 0.015558 0.017750
-0.007750 0.015539 0.018500
-0.007846 0.015500 0.018500
-0.007750 0.015509 0.018250
-0.007771 0.015500 0.018250
-0.007500 0.015517 0.018000
-0.007750 0.015500 0.018224
-0.007547 0.015500 0.018000
-0.007750 0.015354 0.018000
-0.007250 0.015517 0.017750
-0.007500 0.015500 0.017952
-0.007299 0.015500 0.017750
-0.007500 0.015358 0.017750
-0.007250 0.015500 0.017701
0.001250 0.015565 0.021500
0.001250 0.015553 0.021250
0.000500 0.015857 0.020750
0.000298 0.016000 0.020750
0.000500 0.015059 0.018750
0.000250 0.015059 0.018500
-0.000955 0.015250 0.017750
-0.001000 0.015352 0.017750
-0.001000 0.015187 0.017500
-0.001000 0.015250 0.017621
-0.001152 0.015250 0.017500
-0.001250 0.015313 0.017500
-0.001250 0.015250 0.017471
-0.002250 0.015569 0.017750
-0.001500 0.015362 0.017500
-0.001750 0.015405 0.017500
-0.002000 0.015518 0.017500
-0.002250 0.015546 0.017500
-0.001500 0.015250 0.017451
-0.001750 0.015250 0.017437
-0.002000 0.015500 0.017450
-0.002000 0.015354 0.017250
-0.003250 0.016069 0.018250
-0.004250 0.016082 0.018250
-0.004459 0.016250 0.018250
-0.003250 0.016046 0.018000
-0.003500 0.016053 0.018000
-0.004000 0.016060 0.018000
-0.004250 0.016069 0.018000
-0.004500 0.016250 0.018134
-0.003240 0.016000 0.017750
-0.003250 0.016003 0.017750
-0.003500 0.016026 0.017750
-0.003750 0.016035 0.017750
-0.004000 0.016049 0.017750
-0.004250 0.016057 0.017750
-0.003250 0.016000 0.017742
-0.003500 0.016000 0.017681
-0.003750 0.016000 0.017641
-0.003750 0.015903 0.017500
-0.003942 0.016000 0.017500
-0.004000 0.016015 0.017500
-0.004000 0.016000 0.017458
-0.004500 0.016182 0.018000
-0.004250 0.016043 0.017500
-0.005250 0.016556 0.019000
-0.005000 0.016547 0.018750
-0.005000 0.016512 0.018500
-0.005000 0.016500 0.018468
-0.005000 0.016341 0.018250
-0.005000 0.016250 0.018135
-0.005000 0.016182 0.018000
-0.005000 0.016059 0.017750
-0.005250 0.016040 0.017750
-0.005250 0.016000 0.017629
-0.005250 0.015907 0.017500
-0.005500 0.015872 0.017500
-0.005500 0.015750 0.017448
-0.005750 0.015864 0.017500
-0.005750 0.015750 0.017451
-0.006000 0.015750 0.017454
-0.006544 0.015750 0.017750
-0.006750 0.015579 0.017750
-0.006750 0.015558 0.017500
-0.007000 0.015517 0.017500
-0.006798 0.015500 0.017250
-0.008000 0.015312 0.018250
-0.008000 0.015250 0.018155
-0.007879 0.015250 0.018000
-0.008000 0.015185 0.018000
-0.007750 0.015250 0.017955
-0.007546 0.015250 0.017750
-0.007750 0.015078 0.017750
-0.007049 0.015500 0.017500
-0.007250 0.015358 0.017500
-0.007500 0.015250 0.017612
-0.007387 0.015250 0.017500
-0.007500 0.015192 0.017500
-0.007000 0.015500 0.017451
-0.007000 0.015358 0.017250
-0.007250 0.015250 0.017454
0.001250 0.015570 0.021750
0.001554 0.015500 0.021500
0.001500 0.015520 0.021500
0.001500 0.015500 0.021422
0.001500 0.015411 0.021250
0.001397 0.015500 0.021250
0.001500 0.015366 0.021000
0.001352 0.015500 0.021000
0.001250 0.015541 0.021000
0.001273 0.015500 0.020750
0.001250 0.015509 0.020750
0.001000 0.015558 0.020750
0.000750 0.015579 0.020750
0.000546 0.015750 0.020750
0.001250 0.015500 0.020722
0.001058 0.015500 0.020500
0.001000 0.015521 0.020500
0.000750 0.015562 0.020500
0.000500 0.015750 0.020612
0.001000 0.015500 0.020421
0.000750 0.015059 0.019000
0.000799 0.015000 0.018750
0.000750 0.015017 0.018750
0.000750 0.015000 0.018701
0.000750 0.014858 0.018500
0.000549 0.015000 0.018500
0.000500 0.015017 0.018500
0.000500 0.015000 0.018451
0.000500 0.014858 0.018250
0.000299 0.015000 0.018250
0.000250 0.015017 0.018250
0.000000 0.015059 0.018250
0.000250 0.015000 0.018201
0.000758 0.015500 0.019750
0.000750 0.015503 0.019750
0.000500 0.015546 0.019750
0.000879 0.015250 0.019500
0.000750 0.015500 0.019740
0.000750 0.015352 0.019500
0.000750 0.015078 0.019250
0.000750 0.015250 0.019455
-0.002500 0.015862 0.018000
-0.002500 0.015750 0.017951
-0.002500 0.015573 0.017750
-0.002500 0.015556 0.017500
-0.001500 0.015073 0.017250
-0.001750 0.015081 0.017250
-0.001955 0.015250 0.017250
-0.002240 0.015500 0.017250
-0.002250 0.015503 0.017250
-0.002500 0.015527 0.017250
-0.002000 0.015188 0.017000
-0.002000 0.015250 0.017120
-0.002152 0.015250 0.017000
-0.002250 0.015500 0.017242
-0.002250 0.015313 0.017000
-0.002500 0.015500 0.017178
-0.003500 0.015862 0.017500
-0.003500 0.015750 0.017452
-0.003750 0.015750 0.017437
-0.003955 0.015750 0.017250
-0.004750 0.016500 0.018359
-0.004750 0.016452 0.018250
-0.004740 0.016250 0.018000
-0.004750 0.016255 0.018000
-0.004759 0.016250 0.018000
-0.004500 0.016066 0.017750
-0.004750 0.016067 0.017750
-0.004750 0.016250 0.017998
-0.004500 0.016050 0.017500
-0.004750 0.016045 0.017500
-0.004000 0.015853 0.017250
-0.004247 0.016000 0.017250
-0.004250 0.016001 0.017250
-0.004500 0.016019 0.017250
-0.004000 0.015750 0.017121
-0.004250 0.016000 0.017247
-0.004500 0.016000 0.017202
-0.004750 0.016552 0.018750
-0.005000 0.016558 0.019000
-0.004750 0.016532 0.018500
-0.005000 0.016018 0.017500
-0.005070 0.016000 0.017500
-0.005000 0.016000 0.017450
-0.005250 0.015750 0.017437
-0.006500 0.015750 0.017622
-0.006346 0.015750 0.017500
-0.006500 0.015686 0.017500
-0.006500 0.015556 0.017250
-0.006750 0.015517 0.017250
-0.006750 0.015500 0.017203
-0.007046 0.015250 0.017250
-0.007250 0.015078 0.017250
-0.006750 0.015357 0.017000
-0.007000 0.015250 0.017112
-0.006887 0.015250 0.017000
-0.007000 0.015192 0.017000
-0.007750 0.015059 0.017500
-0.007500 0.015059 0.017250
0.001564 0.015250 0.021250
0.001750 0.015067 0.021000
0.001549 0.015250 0.021000
0.001750 0.015054 0.020750
0.001529 0.015250 0.020750
0.001500 0.015314 0.020750
0.001500 0.015186 0.020500
0.001500 0.015250 0.020652
0.001380 0.015250 0.020500
0.001250 0.015355 0.020500
0.001250 0.015250 0.020454
0.001000 0.015406 0.020250
0.000871 0.015500 0.020250
0.001049 0.015000 0.019000
0.001000 0.015017 0.019000
0.001046 0.014750 0.018750
0.001000 0.015000 0.018951
0.001000 0.014858 0.018750
0.001000 0.014693 0.018500
0.001000 0.014750 0.018612
0.000888 0.014750 0.018500
0.001000 0.014566 0.018250
0.000750 0.014580 0.018250
0.000750 0.014750 0.018454
0.000547 0.014750 0.018250
0.000750 0.014569 0.018000
0.000500 0.014694 0.018000
0.000500 0.014750 0.018111
0.000389 0.014750 0.018000
0.000250 0.014858 0.018000
0.000049 0.015000 0.018000
0.000000 0.015017 0.018000
0.000250 0.014750 0.017954
0.000000 0.015000 0.017951
-0.001750 0.015066 0.017000
-0.002250 0.015250 0.016971
-0.003750 0.015581 0.017250
-0.004750 0.016001 0.017250
-0.004755 0.016000 0.017250
-0.004000 0.015688 0.017000
-0.004155 0.015750 0.017000
-0.004250 0.015810 0.017000
-0.004500 0.015843 0.017000
-0.004750 0.016000 0.017246
-0.004250 0.015750 0.016972
-0.004750 0.015810 0.017000
-0.004500 0.015750 0.016959
-0.006250 0.015811 0.017500
-0.006250 0.015750 0.017472
-0.006250 0.015568 0.017250
-0.006250 0.015546 0.017000
-0.006500 0.015513 0.017000
-0.006539 0.015500 0.017000
-0.006500 0.015500 0.016962
-0.006500 0.015352 0.016750
-0.006750 0.015250 0.016954
-0.008000 0.015057 0.017750
-0.008000 0.015017 0.017500
-0.008046 0.015000 0.017500
-0.007750 0.015017 0.017250
-0.008000 0.015000 0.017452
-0.007799 0.015000 0.017250
-0.008000 0.014857 0.017250
-0.007250 0.015059 0.017000
-0.007500 0.015017 0.017000
-0.007750 0.015000 0.017201
-0.007549 0.015000 0.017000
-0.007750 0.014857 0.017000
-0.007500 0.015000 0.016951
0.001750 0.015354 0.021500
0.001750 0.015045 0.020500
0.001250 0.014562 0.018500
0.001500 0.014500 0.018420
0.001370 0.014500 0.018250
0.001250 0.014540 0.018250
0.001321 0.014500 0.018000
0.001250 0.014527 0.018000
0.001000 0.014554 0.018000
0.001256 0.014500 0.017750
0.001250 0.014502 0.017750
0.001000 0.014543 0.017750
0.000750 0.014557 0.017750
0.000500 0.014569 0.017750
0.001250 0.014500 0.017743
0.001029 0.014500 0.017500
0.001000 0.014510 0.017500
0.000750 0.014545 0.017500
0.000500 0.014557 0.017500
0.001000 0.014500 0.017470
-0.001000 0.015056 0.017250
-0.001250 0.015069 0.017250
-0.000960 0.015000 0.017000
-0.001000 0.015014 0.017000
-0.001000 0.015000 0.016962
-0.001250 0.015046 0.017000
-0.001500 0.015055 0.017000
-0.001241 0.015000 0.016750
-0.001250 0.015003 0.016750
-0.001500 0.015027 0.016750
-0.001750 0.015039 0.016750
-0.002000 0.015059 0.016750
-0.001250 0.015000 0.016742
-0.001500 0.015000 0.016678
-0.001750 0.015000 0.016631
-0.001931 0.015000 0.016500
-0.002500 0.015362 0.017000
-0.002250 0.015069 0.016750
-0.002500 0.015250 0.016951
-0.002750 0.015539 0.017250
-0.002750 0.015500 0.017131
-0.002750 0.015405 0.017000
-0.003000 0.015854 0.017750
-0.003000 0.015688 0.017500
-0.003000 0.015750 0.017620
-0.003151 0.015750 0.017500
-0.003250 0.015813 0.017500
-0.003250 0.015569 0.017250
-0.003250 0.015750 0.017471
-0.003500 0.015573 0.017250
-0.003250 0.015546 0.017000
-0.003500 0.015556 0.017000
-0.003750 0.015566 0.017000
-0.003500 0.015527 0.016750
-0.003500 0.015500 0.016678
-0.003750 0.015539 0.016750
-0.004000 0.015560 0.016750
-0.004250 0.015569 0.016750
-0.003750 0.015500 0.016631
-0.005000 0.015854 0.017250
-0.005045 0.015750 0.017250
-0.005000 0.015750 0.017120
-0.004845 0.015750 0.017000
-0.005000 0.015689 0.017000
-0.004750 0.015750 0.016972
-0.006000 0.015571 0.017250
-0.006000 0.015553 0.017000
-0.006000 0.015526 0.016750
-0.006250 0.015503 0.016750
-0.006259 0.015500 0.016750
-0.006545 0.015250 0.016750
-0.006000 0.015500 0.016681
-0.006250 0.015500 0.016743
-0.006348 0.015250 0.016500
-0.006750 0.015078 0.016750
-0.007000 0.015059 0.016750
-0.006500 0.015250 0.016621
-0.006500 0.015187 0.016500
-0.008250 0.014851 0.017500
-0.008046 0.014750 0.017250
-0.008000 0.014750 0.017114
-0.007886 0.014750 0.017000
-0.008000 0.014690 0.017000
-0.007250 0.015017 0.016750
-0.007299 0.015000 0.016750
-0.007500 0.014858 0.016750
-0.007750 0.014750 0.016954
-0.007547 0.014750 0.016750
-0.007750 0.014579 0.016750
-0.007250 0.015000 0.016701
-0.007049 0.015000 0.016500
-0.007250 0.014858 0.016500
-0.007500 0.014750 0.016612
-0.007388 0.014750 0.016500
-0.007500 0.014693 0.016500
0.002063 0.015000 0.021000
0.002000 0.015023 0.021000
0.002000 0.015000 0.020911
0.002000 0.014914 0.020750
0.001901 0.015000 0.020750
0.002000 0.014877 0.020500
0.001864 0.015000 0.020500
0.002000 0.014866 0.020250
0.001837 0.015000 0.020250
0.001750 0.015033 0.020250
0.001500 0.015065 0.020250
0.001250 0.015081 0.020250
0.001063 0.015250 0.020250
0.001816 0.015000 0.020000
0.001750 0.015025 0.020000
0.001500 0.015055 0.020000
0.001250 0.015073 0.020000
0.001048 0.015250 0.020000
0.001000 0.015362 0.020000
0.001500 0.014406 0.018250
0.001548 0.014250 0.018000
0.001500 0.014361 0.018000
0.001528 0.014250 0.017750
0.001500 0.014312 0.017750
0.001500 0.014185 0.017500
0.001500 0.014250 0.017654
0.000250 0.014581 0.017750
0.000047 0.014750 0.017750
0.001378 0.014250 0.017500
0.001250 0.014351 0.017500
0.000250 0.014569 0.017500
0.001250 0.014250 0.017456
0.001046 0.014250 0.017250
0.001000 0.014355 0.017250
0.000781 0.014500 0.017250
0.000750 0.014511 0.017250
0.000500 0.014545 0.017250
0.001000 0.014250 0.017114
0.000750 0.014500 0.017219
-0.000750 0.015058 0.017500
-0.000702 0.015000 0.017250
-0.000750 0.015017 0.017250
-0.000750 0.015000 0.017202
-0.001000 0.014852 0.016750
-0.002750 0.015581 0.017750
-0.002750 0.015566 0.017500
-0.003000 0.015560 0.017250
-0.002931 0.015500 0.017000
-0.003000 0.015518 0.017000
-0.002500 0.015073 0.016750
-0.002750 0.015250 0.016937
-0.003000 0.015500 0.016950
-0.002955 0.015750 0.017750
-0.003240 0.015500 0.016750
-0.003250 0.015503 0.016750
-0.003250 0.015500 0.016742
-0.004500 0.015571 0.016750
-0.003750 0.015405 0.016500
-0.003931 0.015500 0.016500
-0.004000 0.015518 0.016500
-0.004000 0.015500 0.016450
-0.004750 0.015570 0.016750
-0.005000 0.015567 0.016750
-0.005750 0.015572 0.017250
-0.005750 0.015556 0.017000
-0.005750 0.015535 0.016750
-0.005750 0.015500 0.016641
-0.006000 0.015362 0.016500
-0.006250 0.015313 0.016500
-0.006250 0.015250 0.016471
-0.008368 0.014750 0.017500
-0.008250 0.014750 0.017457
-0.008250 0.014566 0.017250
-0.008250 0.014544 0.017000
-0.008000 0.014558 0.016750
-0.007750 0.014562 0.016500
-0.007250 0.014750 0.016454
-0.007500 0.014566 0.016250
-0.008361 0.014500 0.017000
-0.008250 0.014510 0.016750
-0.008274 0.014500 0.016750
-0.008000 0.014521 0.016500
-0.008250 0.014500 0.016720
-0.008058 0.014500 0.016500
-0.008250 0.014356 0.016500
-0.007750 0.014540 0.016250
-0.008000 0.014500 0.016421
-0.007871 0.014500 0.016250
-0.008000 0.014406 0.016250
0.000750 0.015540 0.020250
0.000500 0.015693 0.020500
0.000389 0.015750 0.020500
0.000500 0.015567 0.020250
0.000822 0.015500 0.020000
0.000750 0.015527 0.020000
0.002064 0.014750 0.020750
0.002250 0.014573 0.020500
0.002053 0.014750 0.020500
0.002250 0.014570 0.020250
0.002050 0.014750 0.020250
0.002250 0.014565 0.020000
0.002046 0.014750 0.020000
0.002000 0.014854 0.020000
0.002028 0.014750 0.019750
0.002000 0.014811 0.019750
0.001757 0.015000 0.019750
0.001750 0.015003 0.019750
0.001500 0.015046 0.019750
0.001250 0.015069 0.019750
0.002000 0.014750 0.019656
0.001750 0.015000 0.019741
0.001250 0.014078 0.017250
0.001000 0.014191 0.017000
0.000886 0.014250 0.017000
0.000750 0.014355 0.017000
-0.000500 0.015000 0.017451
-0.000500 0.014858 0.017250
-0.000500 0.014693 0.017000
-0.000500 0.014750 0.017112
-0.000612 0.014750 0.017000
-0.000750 0.014857 0.017000
-0.000750 0.014579 0.016750
-0.000750 0.014750 0.016954
-0.000955 0.014750 0.016750
-0.001000 0.014687 0.016500
-0.001000 0.014750 0.016621
-0.001152 0.014750 0.016500
-0.001250 0.014813 0.016500
-0.001500 0.014862 0.016500
-0.001750 0.014905 0.016500
-0.001250 0.014750 0.016471
-0.001500 0.014750 0.016451
-0.002750 0.015081 0.016750
-0.002955 0.015250 0.016750
-0.003000 0.015354 0.016750
-0.003000 0.015250 0.016620
-0.002000 0.015018 0.016500
-0.002000 0.015000 0.016450
-0.002250 0.015047 0.016500
-0.002500 0.015056 0.016500
-0.002750 0.015066 0.016500
-0.003000 0.015188 0.016500
-0.003151 0.015250 0.016500
-0.003250 0.015313 0.016500
-0.002240 0.015000 0.016250
-0.002250 0.015003 0.016250
-0.002500 0.015027 0.016250
-0.002750 0.015039 0.016250
-0.003000 0.015059 0.016250
-0.003250 0.015250 0.016471
-0.002250 0.015000 0.016242
-0.002500 0.015000 0.016178
-0.002750 0.015000 0.016131
-0.002931 0.015000 0.016000
-0.002931 0.016000 0.018000
-0.003000 0.016018 0.018000
-0.003000 0.016000 0.017950
-0.003500 0.015362 0.016500
-0.003500 0.015250 0.016451
-0.003750 0.015250 0.016437
-0.005250 0.015582 0.017250
-0.005250 0.015569 0.017000
-0.004250 0.015546 0.016500
-0.004500 0.015553 0.016500
-0.004750 0.015554 0.016500
-0.004500 0.015524 0.016250
-0.004500 0.015500 0.016187
-0.005250 0.015558 0.016750
-0.005000 0.015552 0.016500
-0.005250 0.015543 0.016500
-0.004750 0.015527 0.016250
-0.005000 0.015524 0.016250
-0.004750 0.015500 0.016178
-0.005000 0.015500 0.016188
-0.008500 0.014750 0.017667
-0.008500 0.014660 0.017500
-0.008662 0.014500 0.017500
-0.008500 0.014500 0.017301
-0.008441 0.014500 0.017250
-0.008500 0.014443 0.017250
-0.008567 0.014250 0.017250
-0.008500 0.014371 0.017000
-0.008550 0.014250 0.017000
-0.008500 0.014314 0.016750
-0.008750 0.014049 0.016750
-0.008529 0.014250 0.016750
-0.008500 0.014250 0.016653
-0.008380 0.014250 0.016500
-0.008500 0.014185 0.016500
-0.008250 0.014250 0.016455
-0.008063 0.014250 0.016250
-0.008250 0.014080 0.016250
-0.007750 0.014527 0.016000
-0.008000 0.014361 0.016000
-0.007822 0.014500 0.016000
-0.008049 0.014250 0.016000
0.002250 0.014856 0.021000
0.002500 0.014547 0.020250
0.001029 0.015250 0.019750
0.002000 0.014684 0.019500
0.001878 0.014750 0.019500
0.001750 0.014852 0.019500
0.001538 0.015000 0.019500
0.001500 0.015014 0.019500
0.001250 0.015056 0.019500
0.001750 0.014750 0.019456
0.001500 0.015000 0.019461
0.001000 0.015313 0.019750
0.001000 0.015187 0.019500
0.001000 0.015250 0.019652
0.001500 0.014057 0.017250
0.001250 0.014058 0.017000
0.000530 0.014500 0.017000
0.000500 0.014510 0.017000
0.000750 0.014250 0.016954
0.000500 0.014500 0.016971
-0.000750 0.014559 0.016500
-0.001955 0.014750 0.016250
-0.002000 0.014854 0.016250
-0.003250 0.015069 0.016250
-0.002000 0.014688 0.016000
-0.002000 0.014750 0.016120
-0.002152 0.014750 0.016000
-0.002250 0.014813 0.016000
-0.002500 0.014862 0.016000
-0.002750 0.014905 0.016000
-0.003000 0.015018 0.016000
-0.002250 0.014750 0.015971
-0.002500 0.014750 0.015951
-0.002750 0.014750 0.015937
-0.003000 0.015000 0.015950
-0.003250 0.015047 0.016000
-0.003000 0.014854 0.015750
-0.005500 0.015560 0.017000
-0.005500 0.015548 0.016750
-0.005500 0.015515 0.016500
-0.005557 0.015500 0.016500
-0.005250 0.015502 0.016250
-0.005500 0.015500 0.016458
-0.005256 0.015500 0.016250
-0.005250 0.015500 0.016245
-0.007500 0.014554 0.016000
-0.008500 0.014058 0.016250
-0.008250 0.014067 0.016000
-0.007750 0.014502 0.015750
-0.008000 0.014312 0.015750
-0.007756 0.014500 0.015750
-0.008028 0.014250 0.015750
-0.007750 0.014500 0.015742
-0.008000 0.014250 0.015654
-0.008868 0.014000 0.016750
-0.008750 0.014039 0.016500
-0.008847 0.014000 0.016500
-0.008750 0.014009 0.016250
-0.008772 0.014000 0.016250
-0.008500 0.014023 0.016000
-0.008750 0.014000 0.016223
-0.008562 0.014000 0.016000
-0.008750 0.013856 0.016000
-0.008250 0.014054 0.015750
-0.008500 0.014000 0.015912
-0.008398 0.014000 0.015750
-0.008500 0.013912 0.015750
0.002816 0.014500 0.020500
0.002750 0.014525 0.020500
0.002500 0.014556 0.020500
0.002757 0.014500 0.020250
0.002750 0.014503 0.020250
0.002750 0.014500 0.020241
0.002750 0.014354 0.020000
0.002554 0.014500 0.020000
0.002500 0.014520 0.020000
0.002500 0.014500 0.019922
0.002500 0.014411 0.019750
0.002397 0.014500 0.019750
0.002250 0.014553 0.019750
0.002352 0.014500 0.019500
0.002250 0.014541 0.019500
0.002272 0.015000 0.021250
0.002250 0.015009 0.021250
0.002000 0.015058 0.021250
0.001750 0.015080 0.021250
0.002500 0.014686 0.021000
0.002380 0.014750 0.021000
0.002250 0.015000 0.021222
0.002500 0.014565 0.020750
0.002250 0.014582 0.020750
0.002250 0.014750 0.020954
0.001500 0.014857 0.019250
0.001298 0.015000 0.019250
0.001250 0.015017 0.019250
0.001250 0.015000 0.019202
0.001772 0.014000 0.017250
0.001750 0.014009 0.017250
0.001750 0.014000 0.017223
0.001547 0.014000 0.017000
0.001500 0.014017 0.017000
0.001500 0.014000 0.016952
0.001500 0.013858 0.016750
0.001299 0.014000 0.016750
0.001250 0.014017 0.016750
0.001000 0.014058 0.016750
0.000750 0.014079 0.016750
0.001250 0.014000 0.016701
0.001049 0.014000 0.016500
0.001000 0.014017 0.016500
0.001000 0.014000 0.016451
0.000544 0.014250 0.016750
0.000500 0.014351 0.016750
0.000750 0.014058 0.016500
0.000500 0.014250 0.016622
-0.000500 0.014562 0.016750
-0.000250 0.014500 0.016629
-0.000420 0.014500 0.016500
-0.000500 0.014522 0.016500
-0.000500 0.014500 0.016439
-0.000500 0.014360 0.016250
-0.000701 0.014500 0.016250
-0.000750 0.014517 0.016250
-0.001000 0.014556 0.016250
-0.001250 0.014568 0.016250
-0.000750 0.014500 0.016202
-0.000750 0.014357 0.016000
-0.000960 0.014500 0.016000
-0.001000 0.014514 0.016000
-0.001250 0.014546 0.016000
-0.001000 0.014500 0.015962
-0.002500 0.014573 0.015750
-0.002750 0.014582 0.015750
-0.002955 0.014750 0.015750
-0.003500 0.015073 0.016250
-0.003500 0.015056 0.016000
-0.003240 0.015000 0.015750
-0.003250 0.015003 0.015750
-0.003500 0.015027 0.015750
-0.003000 0.014689 0.015500
-0.003000 0.014750 0.015619
-0.003151 0.014750 0.015500
-0.003250 0.015000 0.015742
-0.003250 0.014813 0.015500
-0.003500 0.015000 0.015678
-0.002000 0.014560 0.015750
-0.002250 0.014569 0.015750
-0.001930 0.014500 0.015500
-0.002000 0.014519 0.015500
-0.002250 0.014548 0.015500
-0.002500 0.014559 0.015500
-0.002750 0.014569 0.015500
-0.002000 0.014500 0.015448
-0.002217 0.014500 0.015250
-0.002250 0.014511 0.015250
-0.002500 0.014545 0.015250
-0.002250 0.014500 0.015217
-0.002750 0.014557 0.015250
-0.003000 0.014566 0.015250
-0.003250 0.014750 0.015471
-0.002471 0.014500 0.015000
-0.002500 0.014510 0.015000
-0.002750 0.014543 0.015000
-0.003000 0.014552 0.015000
-0.002500 0.014500 0.014971
-0.005750 0.015403 0.016500
-0.005500 0.015353 0.016250
-0.005750 0.015250 0.016437
-0.005545 0.015250 0.016250
-0.004750 0.015360 0.016000
-0.005000 0.015353 0.016000
-0.005250 0.015312 0.016000
-0.005500 0.015250 0.016120
-0.005347 0.015250 0.016000
-0.005500 0.015188 0.016000
-0.004750 0.015250 0.015952
-0.005000 0.015250 0.015954
-0.005250 0.015250 0.015971
-0.007250 0.014580 0.016250
-0.007250 0.014569 0.016000
-0.007250 0.014557 0.015750
-0.007500 0.014543 0.015750
-0.007500 0.014510 0.015500
-0.007529 0.014500 0.015500
-0.007750 0.014351 0.015500
-0.007878 0.014250 0.015500
-0.008000 0.014185 0.015500
-0.007500 0.014500 0.015470
-0.007750 0.014250 0.015456
-0.009000 0.013858 0.016500
-0.009046 0.013750 0.016500
-0.009000 0.013812 0.016250
-0.009028 0.013750 0.016250
-0.009000 0.013750 0.016155
-0.008880 0.013750 0.016000
-0.009000 0.013685 0.016000
-0.008750 0.013750 0.015954
-0.008564 0.013750 0.015750
-0.008750 0.013580 0.015750
-0.008250 0.014041 0.015500
-0.008500 0.013867 0.015500
-0.008352 0.014000 0.015500
-0.008549 0.013750 0.015500
-0.008000 0.014057 0.015250
-0.008250 0.014009 0.015250
-0.008272 0.014000 0.015250
-0.008250 0.014000 0.015223
0.003028 0.014250 0.020250
0.003000 0.014310 0.020250
0.003000 0.014184 0.020000
0.003000 0.014250 0.020156
0.002879 0.014250 0.020000
0.003000 0.014058 0.019750
0.002750 0.014080 0.019750
0.002750 0.014250 0.019955
0.002564 0.014250 0.019750
0.002750 0.014067 0.019500
0.002549 0.014250 0.019500
0.002500 0.014366 0.019500
0.002529 0.014250 0.019250
0.002500 0.014313 0.019250
0.002272 0.014500 0.019250
0.002250 0.014509 0.019250
0.002500 0.014250 0.019153
0.002250 0.014500 0.019223
0.001852 0.014000 0.017500
0.001750 0.014041 0.017500
0.001880 0.013750 0.017000
0.001750 0.013854 0.017000
0.001750 0.013750 0.016955
0.001546 0.013750 0.016750
0.001500 0.013692 0.016500
0.001500 0.013750 0.016612
0.001388 0.013750 0.016500
0.001250 0.013858 0.016500
0.001250 0.013750 0.016454
0.000500 0.014187 0.016500
-0.000250 0.014406 0.016500
-0.000453 0.014250 0.016250
-0.001500 0.014573 0.016250
-0.000500 0.014194 0.016000
-0.000500 0.014250 0.016110
-0.000612 0.014250 0.016000
-0.001500 0.014556 0.016000
-0.000500 0.014069 0.015750
-0.000750 0.014080 0.015750
-0.000750 0.014250 0.015954
-0.000955 0.014250 0.015750
-0.001000 0.014353 0.015750
-0.001241 0.014500 0.015750
-0.001250 0.014503 0.015750
-0.001000 0.014188 0.015500
-0.001000 0.014250 0.015621
-0.001151 0.014250 0.015500
-0.001250 0.014500 0.015742
-0.001250 0.014313 0.015500
-0.001500 0.014527 0.015750
-0.001500 0.014500 0.015678
-0.001750 0.014500 0.015631
-0.001750 0.014405 0.015500
-0.001953 0.014250 0.015250
-0.002000 0.014358 0.015250
-0.002000 0.014194 0.015000
-0.002000 0.014250 0.015111
-0.002112 0.014250 0.015000
-0.002250 0.014356 0.015000
-0.002250 0.014250 0.014954
-0.003250 0.014571 0.015250
-0.003250 0.014555 0.015000
-0.002455 0.014250 0.014750
-0.002500 0.014351 0.014750
-0.002744 0.014500 0.014750
-0.002750 0.014502 0.014750
-0.003000 0.014524 0.014750
-0.002500 0.014250 0.014621
-0.002750 0.014500 0.014745
-0.003000 0.014500 0.014687
-0.005750 0.015081 0.016250
-0.005750 0.015066 0.016000
-0.005250 0.015069 0.015750
-0.005500 0.015059 0.015750
-0.007000 0.015017 0.016500
-0.007000 0.015000 0.016451
-0.006798 0.015000 0.016250
-0.007000 0.014858 0.016250
-0.007046 0.014750 0.016250
-0.007000 0.014750 0.016112
-0.006888 0.014750 0.016000
-0.007000 0.014694 0.016000
-0.007000 0.014569 0.015750
-0.007250 0.014545 0.015500
-0.008750 0.014054 0.017000
-0.009000 0.013884 0.017000
-0.008884 0.014000 0.017000
-0.009000 0.013870 0.016750
-0.009050 0.013750 0.016750
-0.009250 0.013548 0.016250
-0.007750 0.014078 0.015250
-0.008000 0.014017 0.015000
-0.008047 0.014000 0.015000
-0.008250 0.013854 0.015000
-0.008000 0.014000 0.014952
-0.008250 0.013750 0.014955
-0.008750 0.013567 0.015500
-0.008500 0.013813 0.015250
-0.008529 0.013750 0.015250
-0.008500 0.013750 0.015153
-0.008379 0.013750 0.015000
-0.008500 0.013685 0.015000
0.003346 0.014000 0.020000
0.003250 0.014039 0.020000
0.003272 0.014000 0.019750
0.003250 0.014009 0.019750
0.003250 0.014000 0.019723
0.003250 0.013856 0.019500
0.003062 0.014000 0.019500
0.003000 0.014023 0.019500
0.003000 0.014000 0.019412
0.003000 0.013912 0.019250
0.002898 0.014000 0.019250
0.002750 0.014054 0.019250
0.002852 0.014000 0.019000
0.002750 0.014041 0.019000
0.002500 0.014185 0.019000
0.002379 0.014250 0.019000
0.002250 0.014354 0.019000
0.002064 0.014000 0.018000
0.002000 0.014023 0.018000
0.001750 0.014067 0.018000
0.002064 0.013750 0.017750
0.002000 0.014000 0.017911
0.002000 0.013912 0.017750
0.001899 0.014000 0.017750
0.001750 0.014054 0.017750
0.002050 0.013750 0.017500
0.002000 0.013867 0.017500
0.002030 0.013750 0.017250
0.002000 0.013815 0.017250
0.002000 0.013750 0.017151
0.002000 0.013687 0.017000
0.002000 0.013558 0.016750
0.001750 0.013579 0.016750
0.001250 0.013579 0.016250
0.000250 0.014543 0.017000
0.000258 0.014500 0.016750
0.000250 0.014502 0.016750
0.000348 0.014250 0.016500
0.000250 0.014500 0.016744
0.000250 0.014313 0.016500
0.001046 0.013750 0.016250
0.001000 0.013858 0.016250
0.000798 0.014000 0.016250
0.000750 0.014016 0.016250
0.000500 0.014056 0.016250
0.000250 0.014069 0.016250
0.000250 0.014250 0.016471
0.001000 0.013692 0.016000
0.001000 0.013750 0.016112
0.000887 0.013750 0.016000
0.000750 0.014000 0.016203
0.000750 0.013857 0.016000
0.000541 0.014000 0.016000
0.000500 0.014014 0.016000
0.000750 0.013750 0.015954
0.000500 0.014000 0.015960
0.000000 0.014362 0.016500
0.000000 0.014250 0.016451
0.000000 0.014073 0.016250
-0.000250 0.014250 0.016437
-0.000250 0.014082 0.016250
0.000000 0.014058 0.016000
-0.000250 0.014069 0.016000
0.000000 0.014045 0.015750
-0.000250 0.014057 0.015750
0.000030 0.014000 0.015500
0.000000 0.014010 0.015500
-0.000250 0.014043 0.015500
-0.000500 0.014054 0.015500
-0.000750 0.014066 0.015500
0.000000 0.014000 0.015471
-0.000243 0.014000 0.015250
-0.000250 0.014002 0.015250
-0.000500 0.014027 0.015250
-0.000750 0.014039 0.015250
-0.001000 0.014060 0.015250
-0.000250 0.014000 0.015244
-0.000500 0.014000 0.015179
-0.001250 0.014250 0.015471
-0.003500 0.014862 0.015500
-0.003500 0.014750 0.015451
-0.003500 0.014573 0.015250
-0.003500 0.014557 0.015000
-0.003250 0.014529 0.014750
-0.003500 0.014531 0.014750
-0.002500 0.014188 0.014500
-0.002653 0.014250 0.014500
-0.002750 0.014312 0.014500
-0.003000 0.014353 0.014500
-0.003250 0.014500 0.014674
-0.003250 0.014364 0.014500
-0.002750 0.014250 0.014471
-0.003000 0.014250 0.014454
-0.003500 0.014500 0.014664
-0.006000 0.015250 0.016452
-0.006000 0.015073 0.016250
-0.006250 0.015069 0.016250
-0.006000 0.015055 0.016000
-0.005750 0.015039 0.015750
-0.005250 0.015046 0.015500
-0.005500 0.015018 0.015500
-0.005750 0.015000 0.015631
-0.005569 0.015000 0.015500
-0.005500 0.015000 0.015450
-0.006250 0.015046 0.016000
-0.006000 0.015027 0.015750
-0.006250 0.015003 0.015750
-0.006260 0.015000 0.015750
-0.005750 0.014905 0.015500
-0.006000 0.015000 0.015678
-0.006000 0.014862 0.015500
-0.006250 0.015000 0.015742
-0.006750 0.015058 0.016500
-0.006750 0.015017 0.016250
-0.006750 0.015000 0.016203
-0.006540 0.015000 0.016000
-0.006750 0.014857 0.016000
-0.006750 0.014750 0.015954
-0.006750 0.014581 0.015750
-0.009250 0.013550 0.016500
-0.009250 0.013539 0.016000
-0.007799 0.014000 0.014750
-0.008000 0.013858 0.014750
-0.008046 0.013750 0.014750
-0.008750 0.013553 0.015250
-0.008898 0.013500 0.015250
-0.008750 0.013541 0.015000
-0.009000 0.013366 0.015000
-0.008852 0.013500 0.015000
-0.008250 0.013579 0.014750
-0.008500 0.013558 0.014750
-0.008750 0.013509 0.014750
-0.009000 0.013314 0.014750
-0.008773 0.013500 0.014750
-0.008000 0.013750 0.014612
-0.008000 0.013693 0.014500
-0.008250 0.013562 0.014500
-0.008500 0.013521 0.014500
-0.008750 0.013500 0.014722
-0.008559 0.013500 0.014500
-0.008750 0.013355 0.014500
-0.008500 0.013500 0.014422
-0.008370 0.013500 0.014250
0.003366 0.014000 0.020250
0.003250 0.014048 0.020250
0.003546 0.013750 0.020000
0.003500 0.013857 0.020000
0.003528 0.013750 0.019750
0.003500 0.013812 0.019750
0.003500 0.013685 0.019500
0.003500 0.013750 0.019655
0.003380 0.013750 0.019500
0.003250 0.013580 0.019250
0.003250 0.013750 0.019454
0.003064 0.013750 0.019250
0.003049 0.013750 0.019000
0.003000 0.013867 0.019000
0.000250 0.014047 0.016000
0.000500 0.013856 0.015750
0.000283 0.014000 0.015750
0.000250 0.014011 0.015750
0.000250 0.014000 0.015717
0.000386 0.013750 0.015500
0.000250 0.013855 0.015500
0.000250 0.013750 0.015454
0.000044 0.013750 0.015250
0.000000 0.013851 0.015250
0.000000 0.013687 0.015000
0.000000 0.013750 0.015121
-0.000152 0.013750 0.015000
-0.000250 0.013813 0.015000
-0.000500 0.013862 0.015000
-0.000750 0.014000 0.015131
-0.000250 0.013750 0.014971
-0.000500 0.013750 0.014951
-0.000750 0.013905 0.015000
-0.000930 0.014000 0.015000
-0.003250 0.014250 0.014451
-0.006500 0.015056 0.016250
-0.006500 0.015014 0.016000
-0.006500 0.015000 0.015962
-0.006500 0.014852 0.015750
-0.006545 0.014750 0.015750
-0.006250 0.014813 0.015500
-0.006500 0.014750 0.015620
-0.006349 0.014750 0.015500
-0.005750 0.014750 0.015437
-0.006000 0.014750 0.015451
-0.006250 0.014750 0.015471
-0.005250 0.015003 0.015250
-0.005259 0.015000 0.015250
-0.005250 0.015000 0.015243
-0.006500 0.014689 0.015500
-0.005500 0.014854 0.015250
-0.005545 0.014750 0.015250
-0.005750 0.014582 0.015250
-0.006000 0.014574 0.015250
-0.006250 0.014571 0.015250
-0.005500 0.014750 0.015119
-0.006750 0.014569 0.015500
-0.007000 0.014557 0.015500
-0.009250 0.013551 0.016750
-0.009373 0.013500 0.016750
-0.009370 0.013500 0.016500
-0.009500 0.013371 0.016500
-0.009500 0.013368 0.016250
-0.009366 0.013500 0.016250
-0.009500 0.013357 0.016000
-0.009346 0.013500 0.016000
-0.009000 0.013558 0.015750
-0.009250 0.013509 0.015750
-0.009272 0.013500 0.015750
-0.009250 0.013500 0.015723
-0.009000 0.013412 0.015250
-0.009050 0.013250 0.015000
-0.009029 0.013250 0.014750
-0.009000 0.013250 0.014652
-0.008880 0.013250 0.014500
-0.009000 0.013186 0.014500
-0.009250 0.013045 0.014500
-0.008250 0.013540 0.014250
-0.008500 0.013406 0.014250
-0.008750 0.013250 0.014455
-0.008563 0.013250 0.014250
-0.008750 0.013081 0.014250
-0.009000 0.013065 0.014250
-0.008500 0.013362 0.014000
-0.008322 0.013500 0.014000
-0.007750 0.014058 0.015000
-0.007750 0.014017 0.014750
-0.007750 0.014000 0.014701
-0.007549 0.014000 0.014500
-0.007750 0.013858 0.014500
-0.007888 0.013750 0.014500
-0.007750 0.013750 0.014453
-0.009000 0.013500 0.015412
-0.007750 0.013581 0.014250
-0.008000 0.013566 0.014250
-0.008250 0.013527 0.014000
0.003500 0.013871 0.020500
0.003370 0.014000 0.020500
0.003250 0.014050 0.020500
0.003045 0.014250 0.020500
0.003550 0.013750 0.020250
0.003500 0.013868 0.020250
0.003750 0.013548 0.019750
0.003000 0.014353 0.020500
0.003500 0.013558 0.019250
0.003250 0.013567 0.019000
0.003029 0.013750 0.018750
0.003000 0.013813 0.018750
0.002772 0.014000 0.018750
0.002750 0.014009 0.018750
0.003000 0.013750 0.018653
0.002750 0.014000 0.018723
0.001250 0.013558 0.016000
0.001000 0.013558 0.015750
0.000750 0.013579 0.015750
0.000546 0.013750 0.015750
0.000500 0.013750 0.015613
-0.002750 0.014069 0.014250
-0.003000 0.014072 0.014250
-0.003500 0.014372 0.014500
-0.005000 0.015071 0.015750
-0.004750 0.015072 0.015750
-0.004750 0.015055 0.015500
-0.005000 0.015053 0.015500
-0.005000 0.015024 0.015250
-0.005000 0.015000 0.015187
-0.006500 0.014566 0.015250
-0.006750 0.014557 0.015250
-0.005500 0.014689 0.015000
-0.005750 0.014569 0.015000
-0.006000 0.014560 0.015000
-0.006250 0.014556 0.015000
-0.006500 0.014552 0.015000
-0.006750 0.014543 0.015000
-0.005750 0.014557 0.014750
-0.006000 0.014549 0.014750
-0.006250 0.014535 0.014750
-0.006500 0.014526 0.014750
-0.006250 0.014500 0.014641
-0.006500 0.014500 0.014681
-0.009550 0.013250 0.016500
-0.009750 0.013050 0.016250
-0.009550 0.013250 0.016250
-0.009750 0.013050 0.016000
-0.009546 0.013250 0.016000
-0.009500 0.013312 0.015750
-0.009750 0.013048 0.015750
-0.009528 0.013250 0.015750
-0.009062 0.013500 0.015500
-0.009250 0.013356 0.015500
-0.009500 0.013250 0.015655
-0.009380 0.013250 0.015500
-0.009500 0.013185 0.015500
-0.009250 0.013054 0.014750
-0.009400 0.013000 0.014750
-0.008750 0.013073 0.014000
-0.008549 0.013250 0.014000
-0.009500 0.012876 0.014500
-0.009364 0.013000 0.014500
-0.009250 0.013033 0.014250
-0.009500 0.012864 0.014250
-0.009337 0.013000 0.014250
-0.009000 0.013055 0.014000
-0.009250 0.013025 0.014000
-0.009500 0.012853 0.014000
-0.009316 0.013000 0.014000
-0.008750 0.013069 0.013750
-0.009000 0.013047 0.013750
-0.009250 0.013003 0.013750
-0.009257 0.013000 0.013750
-0.009250 0.013000 0.013741
-0.007546 0.014250 0.015250
-0.007500 0.014250 0.015114
-0.007500 0.014191 0.015000
-0.007500 0.014058 0.014750
-0.007500 0.014017 0.014500
-0.007500 0.014000 0.014451
-0.007500 0.013858 0.014250
-0.007547 0.013750 0.014250
-0.007500 0.013750 0.014112
-0.007750 0.013569 0.014000
-0.008000 0.013555 0.014000
0.003846 0.013500 0.019500
0.003750 0.013539 0.019500
0.003772 0.013500 0.019250
0.003750 0.013509 0.019250
0.003750 0.013500 0.019223
0.003750 0.013353 0.019000
0.003562 0.013500 0.019000
0.003500 0.013523 0.019000
0.003500 0.013500 0.018913
0.003500 0.013411 0.018750
0.003398 0.013500 0.018750
0.003250 0.013553 0.018750
0.003352 0.013500 0.018500
0.003250 0.013541 0.018500
0.003000 0.013685 0.018500
0.002879 0.013750 0.018500
0.002750 0.013854 0.018500
0.001500 0.013558 0.016250
0.001549 0.013500 0.016000
0.001500 0.013517 0.016000
0.001500 0.013500 0.015951
0.001500 0.013358 0.015750
0.001299 0.013500 0.015750
0.001250 0.013517 0.015750
0.001250 0.013500 0.015701
0.001250 0.013358 0.015500
0.001049 0.013500 0.015500
0.001000 0.013517 0.015500
0.000750 0.013558 0.015500
0.000500 0.013692 0.015500
0.001000 0.013500 0.015451
-0.002250 0.014080 0.014750
-0.002250 0.014066 0.014500
-0.002250 0.014039 0.014250
-0.002500 0.014060 0.014250
-0.002250 0.014000 0.014131
-0.002430 0.014000 0.014000
-0.002500 0.014018 0.014000
-0.002750 0.014047 0.014000
-0.002500 0.014000 0.013948
-0.003250 0.014073 0.014250
-0.003500 0.014250 0.014448
-0.003000 0.014056 0.014000
-0.003250 0.014060 0.014000
-0.002717 0.014000 0.013750
-0.002750 0.014011 0.013750
-0.003000 0.014044 0.013750
-0.003250 0.014054 0.013750
-0.002750 0.014000 0.013718
-0.004500 0.015353 0.016000
-0.004500 0.015250 0.015954
-0.004500 0.015071 0.015750
-0.004500 0.015053 0.015500
-0.004500 0.015024 0.015250
-0.004750 0.015027 0.015250
-0.004500 0.015000 0.015187
-0.004750 0.015000 0.015177
-0.004750 0.014861 0.015000
-0.005000 0.014853 0.015000
-0.005250 0.014812 0.015000
-0.005000 0.014750 0.014955
-0.005347 0.014750 0.015000
-0.005250 0.014750 0.014971
-0.007000 0.014545 0.015250
-0.007000 0.014510 0.015000
-0.007030 0.014500 0.015000
-0.006750 0.014502 0.014750
-0.007000 0.014500 0.014971
-0.006757 0.014500 0.014750
-0.006750 0.014500 0.014745
-0.005250 0.014571 0.014750
-0.005500 0.014566 0.014750
-0.005750 0.014543 0.014500
-0.006000 0.014515 0.014500
-0.006058 0.014500 0.014500
-0.006250 0.014403 0.014500
-0.006000 0.014500 0.014458
-0.009500 0.013373 0.016750
-0.009750 0.013050 0.016500
-0.009871 0.013000 0.016500
-0.010000 0.012871 0.016250
-0.009871 0.013000 0.016250
-0.010000 0.012870 0.016000
-0.009870 0.013000 0.016000
-0.010000 0.012868 0.015750
-0.009865 0.013000 0.015750
-0.009750 0.013040 0.015500
-0.009846 0.013000 0.015500
-0.009500 0.012913 0.014750
-0.008500 0.013313 0.013750
-0.008529 0.013250 0.013750
-0.008500 0.013250 0.013652
-0.009553 0.012750 0.014500
-0.009549 0.012750 0.014250
-0.009545 0.012750 0.014000
-0.009500 0.012811 0.013750
-0.009528 0.012750 0.013750
-0.008500 0.013188 0.013500
-0.008750 0.013060 0.013500
-0.009000 0.013018 0.013500
-0.009050 0.013000 0.013500
-0.009250 0.012854 0.013500
-0.009500 0.012750 0.013655
-0.009379 0.012750 0.013500
-0.009500 0.012686 0.013500
-0.009000 0.013000 0.013430
-0.008871 0.013000 0.013250
-0.009000 0.012907 0.013250
-0.009250 0.012750 0.013455
0.004000 0.013308 0.019250
0.004000 0.013250 0.019166
0.003869 0.013250 0.019000
0.003750 0.013250 0.018956
0.003750 0.013067 0.018750
0.003563 0.013250 0.018750
0.003549 0.013250 0.018500
0.003500 0.013366 0.018500
0.002547 0.014000 0.018500
0.003529 0.013250 0.018250
0.003500 0.013313 0.018250
0.003273 0.013500 0.018250
0.003250 0.013509 0.018250
0.003000 0.013558 0.018250
0.002750 0.013579 0.018250
0.002750 0.013750 0.018455
0.003500 0.013250 0.018153
0.003250 0.013500 0.018222
0.001750 0.013558 0.016500
0.002000 0.013500 0.016451
0.002000 0.013358 0.016250
0.001799 0.013500 0.016250
0.001750 0.013517 0.016250
0.002000 0.013193 0.016000
0.002000 0.013250 0.016112
0.001888 0.013250 0.016000
0.001750 0.013500 0.016201
0.001750 0.013358 0.016000
0.001750 0.013250 0.015954
0.001750 0.013081 0.015750
0.001546 0.013250 0.015750
0.001750 0.013069 0.015500
0.001500 0.013194 0.015500
0.001500 0.013250 0.015611
0.001388 0.013250 0.015500
0.001250 0.013250 0.015454
0.001000 0.013358 0.015250
0.000799 0.013500 0.015250
-0.002000 0.014027 0.014250
-0.002000 0.014000 0.014179
-0.002000 0.013862 0.014000
-0.002250 0.013905 0.014000
-0.002250 0.013750 0.013937
-0.002453 0.013750 0.013750
-0.002500 0.013858 0.013750
-0.003500 0.014075 0.014250
-0.003500 0.014062 0.014000
-0.003500 0.014056 0.013750
-0.002500 0.013694 0.013500
-0.002500 0.013750 0.013611
-0.002612 0.013750 0.013500
-0.002750 0.013855 0.013500
-0.002971 0.014000 0.013500
-0.003000 0.014010 0.013500
-0.003250 0.014042 0.013500
-0.002750 0.013750 0.013454
-0.003000 0.014000 0.013472
-0.006250 0.014250 0.014437
-0.007250 0.014511 0.015250
-0.007281 0.014500 0.015250
-0.007250 0.014500 0.015219
-0.007250 0.014355 0.015000
-0.007000 0.014351 0.014750
-0.007250 0.014250 0.014954
-0.007045 0.014250 0.014750
-0.006500 0.014361 0.014500
-0.006750 0.014313 0.014500
-0.007000 0.014250 0.014622
-0.006848 0.014250 0.014500
-0.007000 0.014187 0.014500
-0.006500 0.014250 0.014452
-0.006750 0.014250 0.014471
-0.005000 0.014572 0.014750
-0.005250 0.014554 0.014500
-0.005500 0.014552 0.014500
-0.009872 0.013000 0.016750
-0.010000 0.012871 0.016500
-0.010051 0.012750 0.016500
-0.010250 0.012550 0.016250
-0.010050 0.012750 0.016250
-0.010250 0.012550 0.016000
-0.010050 0.012750 0.016000
-0.010250 0.012550 0.015750
-0.010049 0.012750 0.015750
-0.010000 0.012856 0.015500
-0.010046 0.012750 0.015500
-0.008257 0.013500 0.013750
-0.008380 0.013250 0.013500
-0.008750 0.013040 0.013250
-0.009064 0.012750 0.013250
-0.008836 0.013000 0.013000
0.003750 0.013054 0.018500
0.003750 0.013048 0.018250
0.003500 0.013185 0.018000
0.003380 0.013250 0.018000
0.003250 0.013355 0.018000
0.003059 0.013500 0.018000
0.002049 0.013500 0.016500
0.002000 0.013517 0.016500
0.002047 0.013250 0.016250
0.002000 0.013066 0.015750
0.002250 0.013062 0.016000
0.002500 0.013000 0.015920
0.002371 0.013000 0.015750
0.002250 0.013040 0.015750
0.002322 0.013000 0.015500
0.002250 0.013027 0.015500
0.002000 0.013055 0.015500
0.002256 0.013000 0.015250
0.002250 0.013003 0.015250
0.002000 0.013043 0.015250
0.001750 0.013057 0.015250
0.001500 0.013069 0.015250
0.002250 0.013000 0.015243
0.002029 0.013000 0.015000
0.002000 0.013010 0.015000
0.001750 0.013045 0.015000
0.001500 0.013057 0.015000
0.002000 0.013000 0.014970
0.000250 0.013579 0.015250
-0.003500 0.014050 0.013500
-0.002955 0.013750 0.013250
-0.003000 0.013852 0.013250
-0.003244 0.014000 0.013250
-0.003250 0.014002 0.013250
-0.003250 0.014000 0.013245
-0.006500 0.014073 0.014250
-0.006750 0.014069 0.014250
-0.010371 0.012500 0.016250
-0.010371 0.012500 0.016000
-0.009750 0.013009 0.015250
-0.009772 0.013000 0.015250
-0.009750 0.013000 0.015223
-0.010500 0.012370 0.016000
-0.010500 0.012369 0.015750
-0.010369 0.012500 0.015750
-0.010250 0.012546 0.015500
-0.010500 0.012360 0.015500
-0.010359 0.012500 0.015500
-0.010000 0.012808 0.015250
-0.010250 0.012528 0.015250
-0.010026 0.012750 0.015250
-0.010313 0.012500 0.015250
-0.010000 0.012750 0.015166
-0.010250 0.012500 0.015161
-0.010371 0.012500 0.016500
-0.010500 0.012371 0.016250
-0.010550 0.012250 0.016250
-0.010750 0.012049 0.016000
-0.010550 0.012250 0.016000
-0.010750 0.012049 0.015750
-0.010550 0.012250 0.015750
-0.010750 0.012048 0.015500
-0.010547 0.012250 0.015500
-0.010500 0.012316 0.015250
-0.010530 0.012250 0.015250
-0.010500 0.012250 0.015150
-0.008500 0.013066 0.013250
-0.009250 0.012582 0.013250
-0.009500 0.012565 0.013250
-0.008750 0.013031 0.013000
-0.009000 0.012872 0.013000
-0.009052 0.012750 0.013000
-0.008826 0.013000 0.012750
0.004000 0.013161 0.019000
0.004000 0.013000 0.018799
0.004000 0.012946 0.018750
0.003946 0.013000 0.018750
0.004000 0.012885 0.018500
0.003884 0.013000 0.018500
0.004000 0.012871 0.018250
0.003868 0.013000 0.018250
0.004000 0.012858 0.018000
0.003847 0.013000 0.018000
0.003750 0.013040 0.018000
0.003772 0.013000 0.017750
0.003750 0.013009 0.017750
0.003500 0.013058 0.017750
0.003250 0.013250 0.017955
0.003750 0.013000 0.017722
0.002561 0.013000 0.016000
0.002500 0.013022 0.016000
0.002563 0.012750 0.015750
0.002500 0.012906 0.015750
0.002548 0.012750 0.015500
0.002500 0.012861 0.015500
0.002528 0.012750 0.015250
0.002500 0.012812 0.015250
0.002500 0.012685 0.015000
0.002500 0.012750 0.015154
0.002377 0.012750 0.015000
0.002250 0.012852 0.015000
0.002250 0.012750 0.014956
0.002046 0.012750 0.014750
0.002000 0.012855 0.014750
0.001781 0.013000 0.014750
0.001750 0.013010 0.014750
0.001750 0.013000 0.014719
-0.002500 0.013570 0.013250
-0.002750 0.013581 0.013250
-0.003500 0.014025 0.013250
-0.003000 0.013689 0.013000
-0.003000 0.013750 0.013121
-0.003151 0.013750 0.013000
-0.003250 0.013813 0.013000
-0.003500 0.014000 0.013182
-0.006000 0.014353 0.014250
-0.006045 0.014250 0.014250
-0.006000 0.014250 0.014120
-0.007250 0.014079 0.014750
-0.007250 0.014058 0.014500
-0.006250 0.014082 0.014250
-0.007000 0.014056 0.014250
-0.007250 0.014016 0.014250
-0.007298 0.014000 0.014250
-0.006000 0.014189 0.014000
-0.006250 0.014069 0.014000
-0.006500 0.014058 0.014000
-0.006750 0.014047 0.014000
-0.007000 0.014014 0.014000
-0.007250 0.014000 0.014202
-0.007040 0.014000 0.014000
-0.006250 0.014057 0.013750
-0.006500 0.014045 0.013750
-0.006750 0.014011 0.013750
-0.007000 0.014000 0.013960
-0.006783 0.014000 0.013750
-0.006750 0.014000 0.013718
-0.005750 0.014502 0.014250
-0.005757 0.014500 0.014250
-0.005750 0.014500 0.014245
-0.010863 0.012000 0.016000
-0.011000 0.011827 0.015750
-0.010863 0.012000 0.015750
-0.011000 0.011827 0.015500
-0.010862 0.012000 0.015500
-0.010750 0.012046 0.015250
-0.011000 0.011824 0.015250
-0.010858 0.012000 0.015250
-0.010250 0.012381 0.015000
-0.010389 0.012250 0.015000
-0.010500 0.012186 0.015000
-0.010750 0.012038 0.015000
-0.010838 0.012000 0.015000
-0.009750 0.012549 0.013750
-0.009867 0.012500 0.013750
-0.009750 0.012544 0.013500
-0.009858 0.012500 0.013500
-0.009250 0.012573 0.013000
-0.009500 0.012556 0.013000
-0.008750 0.013029 0.012750
-0.009000 0.012863 0.012750
-0.009250 0.012570 0.012750
-0.009049 0.012750 0.012750
-0.009000 0.012853 0.012500
-0.009750 0.012533 0.013250
-0.009836 0.012500 0.013250
-0.009750 0.012525 0.013000
-0.009816 0.012500 0.013000
-0.009500 0.012547 0.012750
-0.009750 0.012503 0.012750
-0.009758 0.012500 0.012750
-0.009750 0.012500 0.012741
0.004250 0.012881 0.019000
0.004163 0.013000 0.019000
0.004068 0.012750 0.018750
0.004250 0.012567 0.018500
0.004054 0.012750 0.018500
0.004250 0.012556 0.018250
0.004051 0.012750 0.018250
0.004250 0.012551 0.018000
0.004046 0.012750 0.018000
0.004028 0.012750 0.017750
0.004000 0.012812 0.017750
0.004000 0.012750 0.017655
0.002750 0.012541 0.015000
0.002500 0.012558 0.014750
0.002250 0.012579 0.014750
0.002000 0.012750 0.014613
0.002750 0.012859 0.016000
0.002750 0.012567 0.015500
0.002750 0.012554 0.015250
-0.000250 0.013569 0.014750
-0.001000 0.014018 0.015000
-0.000500 0.013574 0.014750
-0.000750 0.013750 0.014937
-0.001000 0.014000 0.014948
-0.002750 0.013569 0.013000
-0.003250 0.013750 0.012971
-0.007250 0.013857 0.014000
-0.007388 0.013750 0.014000
-0.007000 0.013856 0.013750
-0.007250 0.013750 0.013954
-0.007046 0.013750 0.013750
-0.007250 0.013581 0.013750
-0.006500 0.014011 0.013500
-0.006531 0.014000 0.013500
-0.006750 0.013855 0.013500
-0.007000 0.013750 0.013612
-0.006888 0.013750 0.013500
-0.007000 0.013694 0.013500
-0.006500 0.014000 0.013469
-0.006750 0.013750 0.013454
-0.007500 0.013694 0.014000
-0.005500 0.014524 0.014250
-0.005500 0.014500 0.014188
-0.005500 0.014353 0.014000
-0.005750 0.014312 0.014000
-0.005848 0.014250 0.014000
-0.005750 0.014250 0.013971
-0.006000 0.014067 0.013750
-0.011029 0.011750 0.015750
-0.011029 0.011750 0.015500
-0.011028 0.011750 0.015250
-0.011000 0.011810 0.015000
-0.011023 0.011750 0.015000
-0.010750 0.012006 0.014750
-0.010765 0.012000 0.014750
-0.010750 0.012000 0.014730
-0.011000 0.011752 0.014750
-0.011001 0.011750 0.014750
-0.011000 0.011750 0.014748
-0.010000 0.012368 0.013500
-0.010050 0.012250 0.013500
-0.010000 0.012363 0.013250
-0.010049 0.012250 0.013250
-0.010000 0.012353 0.013000
-0.010045 0.012250 0.013000
-0.010000 0.012310 0.012750
-0.010028 0.012250 0.012750
-0.009250 0.012565 0.012500
-0.009045 0.012750 0.012500
-0.009500 0.012520 0.012500
-0.009555 0.012500 0.012500
-0.009750 0.012354 0.012500
-0.010000 0.012250 0.012656
-0.009879 0.012250 0.012500
-0.010000 0.012186 0.012500
-0.009500 0.012500 0.012420
-0.009399 0.012500 0.012250
-0.009500 0.012413 0.012250
-0.009750 0.012250 0.012455
0.004500 0.012686 0.019000
0.004389 0.012750 0.019000
0.004250 0.013000 0.019161
0.004772 0.012500 0.018750
0.004750 0.012509 0.018750
0.004500 0.012558 0.018750
0.004250 0.012580 0.018750
0.004250 0.012750 0.018950
0.004750 0.012500 0.018722
0.004750 0.012356 0.018500
0.004563 0.012500 0.018500
0.004500 0.012523 0.018500
0.004500 0.012500 0.018410
0.004500 0.012415 0.018250
0.004404 0.012500 0.018250
0.004500 0.012380 0.018000
0.004376 0.012500 0.018000
