1657
-0.020176 0.001935 -0.012561
0.020166 0.001935 -0.012575
0.020176 0.001935 -0.012561
-0.020105 0.002487 -0.012575
-0.020176 0.002487 -0.012473
0.020105 0.002487 -0.012575
0.020176 0.002487 -0.012473
-0.020028 0.003040 -0.012575
-0.020176 0.003040 -0.012362
0.020028 0.003040 -0.012575
0.020176 0.003040 -0.012362
-0.019936 0.003593 -0.012575
0.019936 0.003593 -0.012575
-0.019828 0.004146 -0.012575
0.019828 0.004146 -0.012575
-0.019706 0.004698 -0.012575
-0.019623 0.005029 -0.012575
0.019706 0.004698 -0.012575
0.019623 0.005029 -0.012575
-0.019566 0.005251 -0.012575
-0.019623 0.005251 -0.012495
0.019566 0.005251 -0.012575
0.019623 0.005251 -0.012495
-0.019408 0.005804 -0.012575
0.019408 0.005804 -0.012575
-0.019234 0.006357 -0.012575
-0.019070 0.006835 -0.012575
0.019234 0.006357 -0.012575
0.019070 0.006835 -0.012575
-0.019044 0.006910 -0.012575
-0.019070 0.006910 -0.012539
0.019044 0.006910 -0.012575
0.019070 0.006910 -0.012539
-0.018833 0.007462 -0.012575
0.018833 0.007462 -0.012575
-0.018605 0.008015 -0.012575
-0.018518 0.008213 -0.012575
0.018605 0.008015 -0.012575
0.018518 0.008213 -0.012575
-0.018356 0.008568 -0.012575
-0.018518 0.008568 -0.012362
0.018356 0.008568 -0.012575
0.018518 0.008568 -0.012362
-0.018088 0.009121 -0.012575
-0.017965 0.009360 -0.012575
0.018088 0.009121 -0.012575
0.017965 0.009360 -0.012575
-0.017799 0.009673 -0.012575
-0.017965 0.009673 -0.012362
0.017799 0.009673 -0.012575
0.017965 0.009673 -0.012362
-0.017488 0.010226 -0.012575
-0.017412 0.010353 -0.012575
0.017488 0.010226 -0.012575
0.017412 0.010353 -0.012575
-0.017151 0.010779 -0.012575
-0.016859 0.011231 -0.012575
0.017151 0.010779 -0.012575
0.016859 0.011231 -0.012575
-0.016793 0.011332 -0.012575
-0.016859 0.011332 -0.012495
0.016793 0.011332 -0.012575
0.016859 0.011332 -0.012495
-0.016406 0.011884 -0.012575
-0.016307 0.012019 -0.012575
0.016406 0.011884 -0.012575
0.016307 0.012019 -0.012575
-0.015990 0.012437 -0.012575
-0.015754 0.012735 -0.012575
0.015990 0.012437 -0.012575
0.015754 0.012735 -0.012575
-0.015544 0.012990 -0.012575
-0.015754 0.012990 -0.012339
-0.015201 0.013390 -0.012575
0.015544 0.012990 -0.012575
0.015201 0.013390 -0.012575
0.015754 0.012990 -0.012339
-0.015065 0.013543 -0.012575
-0.015201 0.013543 -0.012428
-0.014648 0.013993 -0.012575
0.015065 0.013543 -0.012575
0.014648 0.013993 -0.012575
0.015201 0.013543 -0.012428
-0.014550 0.014095 -0.012575
-0.014648 0.014095 -0.012473
-0.014095 0.014550 -0.012575
0.014550 0.014095 -0.012575
0.014095 0.014550 -0.012575
0.014648 0.014095 -0.012473
-0.013993 0.014648 -0.012575
-0.014095 0.014648 -0.012473
-0.013543 0.015065 -0.012575
0.013993 0.014648 -0.012575
0.013543 0.015065 -0.012575
0.014095 0.014648 -0.012473
-0.013390 0.015201 -0.012575
-0.013543 0.015201 -0.012428
-0.012990 0.015544 -0.012575
0.013390 0.015201 -0.012575
0.012990 0.015544 -0.012575
0.013543 0.015201 -0.012428
-0.012735 0.015754 -0.012575
-0.012990 0.015754 -0.012339
-0.012437 0.015990 -0.012575
0.012735 0.015754 -0.012575
0.012437 0.015990 -0.012575
0.012990 0.015754 -0.012339
-0.012019 0.016307 -0.012575
-0.011884 0.016406 -0.012575
-0.011332 0.016793 -0.012575
0.011332 0.016793 -0.012575
0.012019 0.016307 -0.012575
0.011884 0.016406 -0.012575
-0.011231 0.016859 -0.012575
-0.011332 0.016859 -0.012495
-0.010779 0.017151 -0.012575
0.011231 0.016859 -0.012575
0.010779 0.017151 -0.012575
0.011332 0.016859 -0.012495
-0.010353 0.017412 -0.012575
-0.010226 0.017488 -0.012575
-0.009673 0.017799 -0.012575
0.009673 0.017799 -0.012575
0.010353 0.017412 -0.012575
0.010226 0.017488 -0.012575
-0.009360 0.017965 -0.012575
-0.009673 0.017965 -0.012362
-0.009121 0.018088 -0.012575
-0.008568 0.018356 -0.012575
0.008568 0.018356 -0.012575
0.009360 0.017965 -0.012575
0.009121 0.018088 -0.012575
0.009673 0.017965 -0.012362
-0.008213 0.018518 -0.012575
-0.008568 0.018518 -0.012362
-0.008015 0.018605 -0.012575
-0.007462 0.018833 -0.012575
-0.006910 0.019044 -0.012575
0.006910 0.019044 -0.012575
0.007462 0.018833 -0.012575
0.008213 0.018518 -0.012575
0.008015 0.018605 -0.012575
0.008568 0.018518 -0.012362
-0.006835 0.019070 -0.012575
-0.006910 0.019070 -0.012539
-0.006357 0.019234 -0.012575
-0.005804 0.019408 -0.012575
-0.005251 0.019566 -0.012575
0.005251 0.019566 -0.012575
0.005804 0.019408 -0.012575
0.006835 0.019070 -0.012575
0.006357 0.019234 -0.012575
0.006910 0.019070 -0.012539
-0.005029 0.019623 -0.012575
-0.005251 0.019623 -0.012495
-0.004698 0.019706 -0.012575
-0.004146 0.019828 -0.012575
-0.003593 0.019936 -0.012575
-0.003040 0.020028 -0.012575
-0.002487 0.020105 -0.012575
-0.001935 0.020166 -0.012575
0.001935 0.020166 -0.012575
0.002487 0.020105 -0.012575
0.003040 0.020028 -0.012575
0.003593 0.019936 -0.012575
0.004146 0.019828 -0.012575
0.005029 0.019623 -0.012575
0.004698 0.019706 -0.012575
0.005251 0.019623 -0.012495
-0.003040 0.020176 -0.012362
-0.002487 0.020176 -0.012473
-0.001820 0.020176 -0.012575
-0.001935 0.020176 -0.012561
-0.001382 0.020211 -0.012575
-0.000829 0.020241 -0.012575
-0.000276 0.020256 -0.012575
0.000276 0.020256 -0.012575
0.000829 0.020241 -0.012575
0.001820 0.020176 -0.012575
0.001382 0.020211 -0.012575
0.001935 0.020176 -0.012561
0.002487 0.020176 -0.012473
0.003040 0.020176 -0.012362
-0.003040 -0.020218 -0.012299
-0.002487 -0.020293 -0.012299
-0.001935 -0.020352 -0.012299
-0.001382 -0.020397 -0.012299
-0.000829 -0.020427 -0.012299
-0.000276 -0.020442 -0.012299
0.000276 -0.020442 -0.012299
0.000829 -0.020427 -0.012299
0.001382 -0.020397 -0.012299
0.001935 -0.020352 -0.012299
0.002487 -0.020293 -0.012299
0.003040 -0.020218 -0.012299
-0.005251 -0.019758 -0.012299
-0.004698 -0.019897 -0.012299
-0.004146 -0.020019 -0.012299
-0.004146 -0.020176 -0.012073
-0.003299 -0.020176 -0.012299
-0.003593 -0.020127 -0.012299
-0.003593 -0.020176 -0.012228
0.003299 -0.020176 -0.012299
0.003593 -0.020127 -0.012299
0.003593 -0.020176 -0.012228
0.004146 -0.020019 -0.012299
0.004146 -0.020176 -0.012073
0.004698 -0.019897 -0.012299
0.005251 -0.019758 -0.012299
-0.006910 -0.019241 -0.012299
-0.006357 -0.019431 -0.012299
-0.006357 -0.019623 -0.012028
-0.005738 -0.019623 -0.012299
-0.005804 -0.019604 -0.012299
-0.005804 -0.019623 -0.012273
0.005738 -0.019623 -0.012299
0.005804 -0.019604 -0.012299
0.005804 -0.019623 -0.012273
0.006357 -0.019431 -0.012299
0.006357 -0.019623 -0.012028
0.006910 -0.019241 -0.012299
-0.008568 -0.018563 -0.012299
-0.008015 -0.018807 -0.012299
-0.007369 -0.019070 -0.012299
-0.007462 -0.019035 -0.012299
-0.007462 -0.019070 -0.012250
0.007369 -0.019070 -0.012299
0.007462 -0.019035 -0.012299
0.007462 -0.019070 -0.012250
0.008015 -0.018807 -0.012299
0.008568 -0.018563 -0.012299
-0.009673 -0.018012 -0.012299
-0.008665 -0.018518 -0.012299
-0.009121 -0.018297 -0.012299
0.008665 -0.018518 -0.012299
0.009121 -0.018297 -0.012299
0.009673 -0.018012 -0.012299
-0.009760 -0.017965 -0.012299
-0.010226 -0.017702 -0.012299
0.009760 -0.017965 -0.012299
0.010226 -0.017702 -0.012299
-0.011332 -0.017016 -0.012299
-0.010715 -0.017412 -0.012299
-0.010779 -0.017373 -0.012299
-0.010779 -0.017412 -0.012250
0.010715 -0.017412 -0.012299
0.010779 -0.017373 -0.012299
0.010779 -0.017412 -0.012250
0.011332 -0.017016 -0.012299
-0.011564 -0.016859 -0.012299
-0.011884 -0.016635 -0.012299
-0.011884 -0.016859 -0.012028
0.011564 -0.016859 -0.012299
0.011884 -0.016635 -0.012299
0.011884 -0.016859 -0.012028
-0.012990 -0.015788 -0.012299
-0.012332 -0.016307 -0.012299
-0.012437 -0.016227 -0.012299
-0.012437 -0.016307 -0.012206
0.012332 -0.016307 -0.012299
0.012437 -0.016227 -0.012299
0.012437 -0.016307 -0.012206
0.012990 -0.015788 -0.012299
-0.013032 -0.015754 -0.012299
-0.013543 -0.015316 -0.012299
0.013032 -0.015754 -0.012299
0.013543 -0.015316 -0.012299
-0.013671 -0.015201 -0.012299
-0.014095 -0.014808 -0.012299
0.013671 -0.015201 -0.012299
0.014095 -0.014808 -0.012299
-0.014262 -0.014648 -0.012299
-0.014648 -0.014262 -0.012299
0.014262 -0.014648 -0.012299
0.014648 -0.014262 -0.012299
-0.014808 -0.014095 -0.012299
-0.015201 -0.013671 -0.012299
0.014808 -0.014095 -0.012299
0.015201 -0.013671 -0.012299
-0.015316 -0.013543 -0.012299
-0.015754 -0.013032 -0.012299
0.015316 -0.013543 -0.012299
0.015754 -0.013032 -0.012299
-0.015788 -0.012990 -0.012299
0.015788 -0.012990 -0.012299
-0.016227 -0.012437 -0.012299
-0.016307 -0.012332 -0.012299
-0.016307 -0.012437 -0.012206
0.016227 -0.012437 -0.012299
0.016307 -0.012332 -0.012299
0.016307 -0.012437 -0.012206
-0.016635 -0.011884 -0.012299
-0.016859 -0.011564 -0.012299
-0.016859 -0.011884 -0.012028
0.016635 -0.011884 -0.012299
0.016859 -0.011564 -0.012299
0.016859 -0.011884 -0.012028
-0.017016 -0.011332 -0.012299
0.017016 -0.011332 -0.012299
-0.017373 -0.010779 -0.012299
-0.017412 -0.010715 -0.012299
-0.017412 -0.010779 -0.012250
0.017373 -0.010779 -0.012299
0.017412 -0.010715 -0.012299
0.017412 -0.010779 -0.012250
-0.017702 -0.010226 -0.012299
-0.017965 -0.009760 -0.012299
0.017702 -0.010226 -0.012299
0.017965 -0.009760 -0.012299
-0.018012 -0.009673 -0.012299
0.018012 -0.009673 -0.012299
-0.018297 -0.009121 -0.012299
-0.018518 -0.008665 -0.012299
0.018297 -0.009121 -0.012299
0.018518 -0.008665 -0.012299
-0.018563 -0.008568 -0.012299
0.018563 -0.008568 -0.012299
-0.018807 -0.008015 -0.012299
0.018807 -0.008015 -0.012299
-0.019035 -0.007462 -0.012299
-0.019070 -0.007369 -0.012299
-0.019070 -0.007462 -0.012250
0.019035 -0.007462 -0.012299
0.019070 -0.007369 -0.012299
0.019070 -0.007462 -0.012250
-0.019241 -0.006910 -0.012299
0.019241 -0.006910 -0.012299
-0.019431 -0.006357 -0.012299
-0.019623 -0.006357 -0.012028
0.019431 -0.006357 -0.012299
0.019623 -0.006357 -0.012028
-0.019604 -0.005804 -0.012299
-0.019623 -0.005738 -0.012299
-0.019623 -0.005804 -0.012273
0.019604 -0.005804 -0.012299
0.019623 -0.005738 -0.012299
0.019623 -0.005804 -0.012273
-0.019758 -0.005251 -0.012299
0.019758 -0.005251 -0.012299
-0.019897 -0.004698 -0.012299
0.019897 -0.004698 -0.012299
-0.020019 -0.004146 -0.012299
-0.020176 -0.004146 -0.012073
0.020019 -0.004146 -0.012299
0.020176 -0.004146 -0.012073
-0.020127 -0.003593 -0.012299
-0.020176 -0.003299 -0.012299
-0.020176 -0.003593 -0.012228
0.020127 -0.003593 -0.012299
0.020176 -0.003299 -0.012299
0.020176 -0.003593 -0.012228
-0.020218 -0.003040 -0.012299
0.020218 -0.003040 -0.012299
-0.020293 -0.002487 -0.012299
0.020293 -0.002487 -0.012299
-0.020352 -0.001935 -0.012299
0.020352 -0.001935 -0.012299
-0.020397 -0.001382 -0.012299
0.020397 -0.001382 -0.012299
-0.020427 -0.000829 -0.012299
0.020427 -0.000829 -0.012299
-0.020442 -0.000276 -0.012299
0.020442 -0.000276 -0.012299
-0.020442 0.000276 -0.012299
0.020442 0.000276 -0.012299
-0.020427 0.000829 -0.012299
0.020427 0.000829 -0.012299
-0.020397 0.001382 -0.012299
0.020397 0.001382 -0.012299
-0.020352 0.001935 -0.012299
0.020352 0.001935 -0.012299
-0.020293 0.002487 -0.012299
0.020293 0.002487 -0.012299
-0.020218 0.003040 -0.012299
-0.020176 0.003299 -0.012299
0.020218 0.003040 -0.012299
0.020176 0.003299 -0.012299
-0.020127 0.003593 -0.012299
-0.020176 0.003593 -0.012228
0.020127 0.003593 -0.012299
0.020176 0.003593 -0.012228
-0.020019 0.004146 -0.012299
-0.020176 0.004146 -0.012073
0.020019 0.004146 -0.012299
0.020176 0.004146 -0.012073
-0.019897 0.004698 -0.012299
0.019897 0.004698 -0.012299
-0.019758 0.005251 -0.012299
-0.019623 0.005738 -0.012299
0.019758 0.005251 -0.012299
0.019623 0.005738 -0.012299
-0.019604 0.005804 -0.012299
-0.019623 0.005804 -0.012273
0.019604 0.005804 -0.012299
0.019623 0.005804 -0.012273
-0.019431 0.006357 -0.012299
-0.019623 0.006357 -0.012028
0.019431 0.006357 -0.012299
0.019623 0.006357 -0.012028
-0.019241 0.006910 -0.012299
-0.019070 0.007369 -0.012299
0.019241 0.006910 -0.012299
0.019070 0.007369 -0.012299
-0.019035 0.007462 -0.012299
-0.019070 0.007462 -0.012250
0.019035 0.007462 -0.012299
0.019070 0.007462 -0.012250
-0.018807 0.008015 -0.012299
0.018807 0.008015 -0.012299
-0.018563 0.008568 -0.012299
-0.018518 0.008665 -0.012299
0.018563 0.008568 -0.012299
0.018518 0.008665 -0.012299
-0.018297 0.009121 -0.012299
0.018297 0.009121 -0.012299
-0.018012 0.009673 -0.012299
-0.017965 0.009760 -0.012299
0.018012 0.009673 -0.012299
0.017965 0.009760 -0.012299
-0.017702 0.010226 -0.012299
-0.017412 0.010715 -0.012299
0.017702 0.010226 -0.012299
0.017412 0.010715 -0.012299
-0.017373 0.010779 -0.012299
-0.017412 0.010779 -0.012250
0.017373 0.010779 -0.012299
0.017412 0.010779 -0.012250
-0.017016 0.011332 -0.012299
-0.016859 0.011564 -0.012299
0.017016 0.011332 -0.012299
0.016859 0.011564 -0.012299
-0.016635 0.011884 -0.012299
-0.016859 0.011884 -0.012028
-0.016307 0.012332 -0.012299
0.016635 0.011884 -0.012299
0.016307 0.012332 -0.012299
0.016859 0.011884 -0.012028
-0.016227 0.012437 -0.012299
-0.016307 0.012437 -0.012206
0.016227 0.012437 -0.012299
0.016307 0.012437 -0.012206
-0.015788 0.012990 -0.012299
-0.015754 0.013032 -0.012299
0.015788 0.012990 -0.012299
0.015754 0.013032 -0.012299
-0.015316 0.013543 -0.012299
-0.015201 0.013671 -0.012299
0.015316 0.013543 -0.012299
0.015201 0.013671 -0.012299
-0.014808 0.014095 -0.012299
-0.014648 0.014262 -0.012299
0.014808 0.014095 -0.012299
0.014648 0.014262 -0.012299
-0.014262 0.014648 -0.012299
-0.014095 0.014808 -0.012299
0.014262 0.014648 -0.012299
0.014095 0.014808 -0.012299
-0.013671 0.015201 -0.012299
-0.013543 0.015316 -0.012299
0.013671 0.015201 -0.012299
0.013543 0.015316 -0.012299
-0.013032 0.015754 -0.012299
-0.012990 0.015788 -0.012299
-0.012437 0.016227 -0.012299
0.012437 0.016227 -0.012299
0.013032 0.015754 -0.012299
0.012990 0.015788 -0.012299
-0.012332 0.016307 -0.012299
-0.012437 0.016307 -0.012206
-0.011884 0.016635 -0.012299
0.012332 0.016307 -0.012299
0.011884 0.016635 -0.012299
0.012437 0.016307 -0.012206
-0.011564 0.016859 -0.012299
-0.011884 0.016859 -0.012028
-0.011332 0.017016 -0.012299
-0.010779 0.017373 -0.012299
0.010779 0.017373 -0.012299
0.011564 0.016859 -0.012299
0.011332 0.017016 -0.012299
0.011884 0.016859 -0.012028
-0.010715 0.017412 -0.012299
-0.010779 0.017412 -0.012250
-0.010226 0.017702 -0.012299
0.010715 0.017412 -0.012299
0.010226 0.017702 -0.012299
0.010779 0.017412 -0.012250
-0.009760 0.017965 -0.012299
-0.009673 0.018012 -0.012299
-0.009121 0.018297 -0.012299
0.009121 0.018297 -0.012299
0.009760 0.017965 -0.012299
0.009673 0.018012 -0.012299
-0.008665 0.018518 -0.012299
-0.008568 0.018563 -0.012299
-0.008015 0.018807 -0.012299
-0.007462 0.019035 -0.012299
0.007462 0.019035 -0.012299
0.008015 0.018807 -0.012299
0.008665 0.018518 -0.012299
0.008568 0.018563 -0.012299
-0.007369 0.019070 -0.012299
-0.007462 0.019070 -0.012250
-0.006910 0.019241 -0.012299
-0.006357 0.019431 -0.012299
-0.005804 0.019604 -0.012299
0.005804 0.019604 -0.012299
0.006357 0.019431 -0.012299
0.007369 0.019070 -0.012299
0.006910 0.019241 -0.012299
0.007462 0.019070 -0.012250
-0.006357 0.019623 -0.012028
-0.005738 0.019623 -0.012299
-0.005804 0.019623 -0.012273
-0.005251 0.019758 -0.012299
-0.004698 0.019897 -0.012299
-0.004146 0.020019 -0.012299
-0.003593 0.020127 -0.012299
0.003593 0.020127 -0.012299
0.004146 0.020019 -0.012299
0.004698 0.019897 -0.012299
0.005738 0.019623 -0.012299
0.005251 0.019758 -0.012299
0.005804 0.019623 -0.012273
0.006357 0.019623 -0.012028
-0.004146 0.020176 -0.012073
-0.003299 0.020176 -0.012299
-0.003593 0.020176 -0.012228
-0.003040 0.020218 -0.012299
-0.002487 0.020293 -0.012299
-0.001935 0.020352 -0.012299
-0.001382 0.020397 -0.012299
-0.000829 0.020427 -0.012299
-0.000276 0.020442 -0.012299
0.000276 0.020442 -0.012299
0.000829 0.020427 -0.012299
0.001382 0.020397 -0.012299
0.001935 0.020352 -0.012299
0.002487 0.020293 -0.012299
0.003299 0.020176 -0.012299
0.003040 0.020218 -0.012299
0.003593 0.020176 -0.012228
0.004146 0.020176 -0.012073
-0.004146 -0.020210 -0.012023
-0.003593 -0.020314 -0.012023
-0.003040 -0.020404 -0.012023
-0.002487 -0.020478 -0.012023
-0.001935 -0.020538 -0.012023
-0.001382 -0.020583 -0.012023
-0.001382 -0.020729 -0.011806
-0.000829 -0.020613 -0.012023
-0.000829 -0.020729 -0.011850
-0.000276 -0.020628 -0.012023
-0.000276 -0.020729 -0.011873
0.000276 -0.020628 -0.012023
0.000276 -0.020729 -0.011873
0.000829 -0.020613 -0.012023
0.000829 -0.020729 -0.011850
0.001382 -0.020583 -0.012023
0.001382 -0.020729 -0.011806
0.001935 -0.020538 -0.012023
0.002487 -0.020478 -0.012023
0.003040 -0.020404 -0.012023
0.003593 -0.020314 -0.012023
0.004146 -0.020210 -0.012023
-0.006357 -0.019627 -0.012023
-0.005804 -0.019796 -0.012023
-0.005251 -0.019949 -0.012023
-0.004301 -0.020176 -0.012023
-0.004698 -0.020088 -0.012023
-0.004698 -0.020176 -0.011895
0.004301 -0.020176 -0.012023
0.004698 -0.020088 -0.012023
0.004698 -0.020176 -0.011895
0.005251 -0.019949 -0.012023
0.005804 -0.019796 -0.012023
0.006357 -0.019627 -0.012023
-0.007462 -0.019232 -0.012023
-0.006368 -0.019623 -0.012023
-0.006910 -0.019438 -0.012023
-0.006910 -0.019623 -0.011762
0.006368 -0.019623 -0.012023
0.006910 -0.019438 -0.012023
0.006910 -0.019623 -0.011762
0.007462 -0.019232 -0.012023
-0.008568 -0.018766 -0.012023
-0.007867 -0.019070 -0.012023
-0.008015 -0.019009 -0.012023
-0.008015 -0.019070 -0.011939
0.007867 -0.019070 -0.012023
0.008015 -0.019009 -0.012023
0.008015 -0.019070 -0.011939
0.008568 -0.018766 -0.012023
-0.009673 -0.018220 -0.012023
-0.009095 -0.018518 -0.012023
-0.009121 -0.018505 -0.012023
-0.009121 -0.018518 -0.012006
0.009095 -0.018518 -0.012023
0.009121 -0.018505 -0.012023
0.009121 -0.018518 -0.012006
0.009673 -0.018220 -0.012023
-0.010779 -0.017589 -0.012023
-0.010142 -0.017965 -0.012023
-0.010226 -0.017917 -0.012023
-0.010226 -0.017965 -0.011961
0.010142 -0.017965 -0.012023
0.010226 -0.017917 -0.012023
0.010226 -0.017965 -0.011961
0.010779 -0.017589 -0.012023
-0.011884 -0.016864 -0.012023
-0.011062 -0.017412 -0.012023
-0.011332 -0.017238 -0.012023
-0.011332 -0.017412 -0.011806
0.011062 -0.017412 -0.012023
0.011332 -0.017238 -0.012023
0.011332 -0.017412 -0.011806
0.011884 -0.016864 -0.012023
-0.011891 -0.016859 -0.012023
-0.012437 -0.016459 -0.012023
0.011891 -0.016859 -0.012023
0.012437 -0.016459 -0.012023
-0.012635 -0.016307 -0.012023
-0.012990 -0.016025 -0.012023
0.012635 -0.016307 -0.012023
0.012990 -0.016025 -0.012023
-0.013318 -0.015754 -0.012023
-0.013543 -0.015561 -0.012023
-0.013543 -0.015754 -0.011806
0.013318 -0.015754 -0.012023
0.013543 -0.015561 -0.012023
0.013543 -0.015754 -0.011806
-0.013946 -0.015201 -0.012023
-0.014095 -0.015063 -0.012023
-0.014095 -0.015201 -0.011873
0.013946 -0.015201 -0.012023
0.014095 -0.015063 -0.012023
0.014095 -0.015201 -0.011873
-0.014526 -0.014648 -0.012023
-0.014648 -0.014526 -0.012023
-0.014648 -0.014648 -0.011895
0.014526 -0.014648 -0.012023
0.014648 -0.014526 -0.012023
0.014648 -0.014648 -0.011895
-0.015063 -0.014095 -0.012023
-0.015201 -0.013946 -0.012023
-0.015201 -0.014095 -0.011873
0.015063 -0.014095 -0.012023
0.015201 -0.013946 -0.012023
0.015201 -0.014095 -0.011873
-0.015561 -0.013543 -0.012023
-0.015754 -0.013318 -0.012023
-0.015754 -0.013543 -0.011806
0.015561 -0.013543 -0.012023
0.015754 -0.013318 -0.012023
0.015754 -0.013543 -0.011806
-0.016025 -0.012990 -0.012023
-0.016307 -0.012635 -0.012023
0.016025 -0.012990 -0.012023
0.016307 -0.012635 -0.012023
-0.016459 -0.012437 -0.012023
-0.016859 -0.011891 -0.012023
0.016459 -0.012437 -0.012023
0.016859 -0.011891 -0.012023
-0.016864 -0.011884 -0.012023
0.016864 -0.011884 -0.012023
-0.017238 -0.011332 -0.012023
-0.017412 -0.011062 -0.012023
-0.017412 -0.011332 -0.011806
0.017238 -0.011332 -0.012023
0.017412 -0.011062 -0.012023
0.017412 -0.011332 -0.011806
-0.017589 -0.010779 -0.012023
0.017589 -0.010779 -0.012023
-0.017917 -0.010226 -0.012023
-0.017965 -0.010142 -0.012023
-0.017965 -0.010226 -0.011961
0.017917 -0.010226 -0.012023
0.017965 -0.010142 -0.012023
0.017965 -0.010226 -0.011961
-0.018220 -0.009673 -0.012023
0.018220 -0.009673 -0.012023
-0.018505 -0.009121 -0.012023
-0.018518 -0.009095 -0.012023
-0.018518 -0.009121 -0.012006
0.018505 -0.009121 -0.012023
0.018518 -0.009095 -0.012023
0.018518 -0.009121 -0.012006
-0.018766 -0.008568 -0.012023
0.018766 -0.008568 -0.012023
-0.019009 -0.008015 -0.012023
-0.019070 -0.007867 -0.012023
-0.019070 -0.008015 -0.011939
0.019009 -0.008015 -0.012023
0.019070 -0.007867 -0.012023
0.019070 -0.008015 -0.011939
-0.019232 -0.007462 -0.012023
0.019232 -0.007462 -0.012023
-0.019438 -0.006910 -0.012023
-0.019623 -0.006368 -0.012023
-0.019623 -0.006910 -0.011762
0.019438 -0.006910 -0.012023
0.019623 -0.006368 -0.012023
0.019623 -0.006910 -0.011762
-0.019627 -0.006357 -0.012023
0.019627 -0.006357 -0.012023
-0.019796 -0.005804 -0.012023
0.019796 -0.005804 -0.012023
-0.019949 -0.005251 -0.012023
0.019949 -0.005251 -0.012023
-0.020088 -0.004698 -0.012023
-0.020176 -0.004301 -0.012023
-0.020176 -0.004698 -0.011895
0.020088 -0.004698 -0.012023
0.020176 -0.004301 -0.012023
0.020176 -0.004698 -0.011895
-0.020210 -0.004146 -0.012023
0.020210 -0.004146 -0.012023
-0.020314 -0.003593 -0.012023
0.020314 -0.003593 -0.012023
-0.020404 -0.003040 -0.012023
0.020404 -0.003040 -0.012023
-0.020478 -0.002487 -0.012023
0.020478 -0.002487 -0.012023
-0.020538 -0.001935 -0.012023
0.020538 -0.001935 -0.012023
-0.020583 -0.001382 -0.012023
-0.020729 -0.001382 -0.011806
0.020583 -0.001382 -0.012023
0.020729 -0.001382 -0.011806
-0.020613 -0.000829 -0.012023
-0.020729 -0.000829 -0.011850
0.020613 -0.000829 -0.012023
0.020729 -0.000829 -0.011850
-0.020628 -0.000276 -0.012023
-0.020729 -0.000276 -0.011873
0.020628 -0.000276 -0.012023
0.020729 -0.000276 -0.011873
-0.020628 0.000276 -0.012023
-0.020729 0.000276 -0.011873
0.020628 0.000276 -0.012023
0.020729 0.000276 -0.011873
-0.020613 0.000829 -0.012023
-0.020729 0.000829 -0.011850
0.020613 0.000829 -0.012023
0.020729 0.000829 -0.011850
-0.020583 0.001382 -0.012023
-0.020729 0.001382 -0.011806
0.020583 0.001382 -0.012023
0.020729 0.001382 -0.011806
-0.020538 0.001935 -0.012023
0.020538 0.001935 -0.012023
-0.020478 0.002487 -0.012023
0.020478 0.002487 -0.012023
-0.020404 0.003040 -0.012023
0.020404 0.003040 -0.012023
-0.020314 0.003593 -0.012023
0.020314 0.003593 -0.012023
-0.020210 0.004146 -0.012023
-0.020176 0.004301 -0.012023
0.020210 0.004146 -0.012023
0.020176 0.004301 -0.012023
-0.020088 0.004698 -0.012023
-0.020176 0.004698 -0.011895
0.020088 0.004698 -0.012023
0.020176 0.004698 -0.011895
-0.019949 0.005251 -0.012023
0.019949 0.005251 -0.012023
-0.019796 0.005804 -0.012023
0.019796 0.005804 -0.012023
-0.019627 0.006357 -0.012023
-0.019623 0.006368 -0.012023
0.019627 0.006357 -0.012023
0.019623 0.006368 -0.012023
-0.019438 0.006910 -0.012023
-0.019623 0.006910 -0.011762
0.019438 0.006910 -0.012023
0.019623 0.006910 -0.011762
-0.019232 0.007462 -0.012023
-0.019070 0.007867 -0.012023
0.019232 0.007462 -0.012023
0.019070 0.007867 -0.012023
-0.019009 0.008015 -0.012023
-0.019070 0.008015 -0.011939
0.019009 0.008015 -0.012023
0.019070 0.008015 -0.011939
-0.018766 0.008568 -0.012023
-0.018518 0.009095 -0.012023
0.018766 0.008568 -0.012023
0.018518 0.009095 -0.012023
-0.018505 0.009121 -0.012023
-0.018518 0.009121 -0.012006
0.018505 0.009121 -0.012023
0.018518 0.009121 -0.012006
-0.018220 0.009673 -0.012023
-0.017965 0.010142 -0.012023
0.018220 0.009673 -0.012023
0.017965 0.010142 -0.012023
-0.017917 0.010226 -0.012023
-0.017965 0.010226 -0.011961
0.017917 0.010226 -0.012023
0.017965 0.010226 -0.011961
-0.017589 0.010779 -0.012023
-0.017412 0.011062 -0.012023
0.017589 0.010779 -0.012023
0.017412 0.011062 -0.012023
-0.017238 0.011332 -0.012023
-0.017412 0.011332 -0.011806
0.017238 0.011332 -0.012023
0.017412 0.011332 -0.011806
-0.016864 0.011884 -0.012023
-0.016859 0.011891 -0.012023
0.016864 0.011884 -0.012023
0.016859 0.011891 -0.012023
-0.016459 0.012437 -0.012023
-0.016307 0.012635 -0.012023
0.016459 0.012437 -0.012023
0.016307 0.012635 -0.012023
-0.016025 0.012990 -0.012023
-0.015754 0.013318 -0.012023
0.016025 0.012990 -0.012023
0.015754 0.013318 -0.012023
-0.015561 0.013543 -0.012023
-0.015754 0.013543 -0.011806
-0.015201 0.013946 -0.012023
0.015561 0.013543 -0.012023
0.015201 0.013946 -0.012023
0.015754 0.013543 -0.011806
-0.015063 0.014095 -0.012023
-0.015201 0.014095 -0.011873
-0.014648 0.014526 -0.012023
0.015063 0.014095 -0.012023
0.014648 0.014526 -0.012023
0.015201 0.014095 -0.011873
-0.014526 0.014648 -0.012023
-0.014648 0.014648 -0.011895
-0.014095 0.015063 -0.012023
0.014526 0.014648 -0.012023
0.014095 0.015063 -0.012023
0.014648 0.014648 -0.011895
-0.013946 0.015201 -0.012023
-0.014095 0.015201 -0.011873
-0.013543 0.015561 -0.012023
0.013946 0.015201 -0.012023
0.013543 0.015561 -0.012023
0.014095 0.015201 -0.011873
-0.013318 0.015754 -0.012023
-0.013543 0.015754 -0.011806
-0.012990 0.016025 -0.012023
0.013318 0.015754 -0.012023
0.012990 0.016025 -0.012023
0.013543 0.015754 -0.011806
-0.012635 0.016307 -0.012023
-0.012437 0.016459 -0.012023
0.012635 0.016307 -0.012023
0.012437 0.016459 -0.012023
-0.011891 0.016859 -0.012023
-0.011884 0.016864 -0.012023
-0.011332 0.017238 -0.012023
0.011332 0.017238 -0.012023
0.011891 0.016859 -0.012023
0.011884 0.016864 -0.012023
-0.011062 0.017412 -0.012023
-0.011332 0.017412 -0.011806
-0.010779 0.017589 -0.012023
-0.010226 0.017917 -0.012023
0.010226 0.017917 -0.012023
0.011062 0.017412 -0.012023
0.010779 0.017589 -0.012023
0.011332 0.017412 -0.011806
-0.010142 0.017965 -0.012023
-0.010226 0.017965 -0.011961
-0.009673 0.018220 -0.012023
-0.009121 0.018505 -0.012023
0.009121 0.018505 -0.012023
0.010142 0.017965 -0.012023
0.009673 0.018220 -0.012023
0.010226 0.017965 -0.011961
-0.009095 0.018518 -0.012023
-0.009121 0.018518 -0.012006
-0.008568 0.018766 -0.012023
-0.008015 0.019009 -0.012023
0.008015 0.019009 -0.012023
0.009095 0.018518 -0.012023
0.008568 0.018766 -0.012023
0.009121 0.018518 -0.012006
-0.007867 0.019070 -0.012023
-0.008015 0.019070 -0.011939
-0.007462 0.019232 -0.012023
-0.006910 0.019438 -0.012023
0.006910 0.019438 -0.012023
0.007867 0.019070 -0.012023
0.007462 0.019232 -0.012023
0.008015 0.019070 -0.011939
-0.006368 0.019623 -0.012023
-0.006910 0.019623 -0.011762
-0.006357 0.019627 -0.012023
-0.005804 0.019796 -0.012023
-0.005251 0.019949 -0.012023
-0.004698 0.020088 -0.012023
0.004698 0.020088 -0.012023
0.005251 0.019949 -0.012023
0.005804 0.019796 -0.012023
0.006368 0.019623 -0.012023
0.006357 0.019627 -0.012023
0.006910 0.019623 -0.011762
-0.004301 0.020176 -0.012023
-0.004698 0.020176 -0.011895
-0.004146 0.020210 -0.012023
-0.003593 0.020314 -0.012023
-0.003040 0.020404 -0.012023
-0.002487 0.020478 -0.012023
-0.001935 0.020538 -0.012023
-0.001382 0.020583 -0.012023
-0.000829 0.020613 -0.012023
-0.000276 0.020628 -0.012023
0.000276 0.020628 -0.012023
0.000829 0.020613 -0.012023
0.001382 0.020583 -0.012023
0.001935 0.020538 -0.012023
0.002487 0.020478 -0.012023
0.003040 0.020404 -0.012023
0.003593 0.020314 -0.012023
0.004301 0.020176 -0.012023
0.004146 0.020210 -0.012023
0.004698 0.020176 -0.011895
-0.001382 0.020729 -0.011806
-0.000829 0.020729 -0.011850
-0.000276 0.020729 -0.011873
0.000276 0.020729 -0.011873
0.000829 0.020729 -0.011850
0.001382 0.020729 -0.011806
-0.001382 -0.020768 -0.011746
-0.000829 -0.020797 -0.011746
-0.000276 -0.020811 -0.011746
0.000276 -0.020811 -0.011746
0.000829 -0.020797 -0.011746
0.001382 -0.020768 -0.011746
-0.004698 -0.020276 -0.011746
-0.004146 -0.020395 -0.011746
-0.003593 -0.020500 -0.011746
-0.003040 -0.020590 -0.011746
-0.003040 -0.020729 -0.011539
-0.002487 -0.020664 -0.011746
-0.002487 -0.020729 -0.011650
-0.001877 -0.020729 -0.011746
-0.001935 -0.020724 -0.011746
-0.001935 -0.020729 -0.011739
0.001877 -0.020729 -0.011746
0.001935 -0.020724 -0.011746
0.001935 -0.020729 -0.011739
0.002487 -0.020664 -0.011746
0.002487 -0.020729 -0.011650
0.003040 -0.020590 -0.011746
0.003040 -0.020729 -0.011539
0.003593 -0.020500 -0.011746
0.004146 -0.020395 -0.011746
0.004698 -0.020276 -0.011746
-0.006910 -0.019634 -0.011746
-0.006357 -0.019818 -0.011746
-0.005804 -0.019987 -0.011746
-0.005804 -0.020176 -0.011473
-0.005109 -0.020176 -0.011746
-0.005251 -0.020140 -0.011746
-0.005251 -0.020176 -0.011695
0.005109 -0.020176 -0.011746
0.005251 -0.020140 -0.011746
0.005251 -0.020176 -0.011695
0.005804 -0.019987 -0.011746
0.005804 -0.020176 -0.011473
0.006357 -0.019818 -0.011746
0.006910 -0.019634 -0.011746
-0.008015 -0.019208 -0.011746
-0.006939 -0.019623 -0.011746
-0.007462 -0.019429 -0.011746
-0.007462 -0.019623 -0.011473
0.006939 -0.019623 -0.011746
0.007462 -0.019429 -0.011746
0.007462 -0.019623 -0.011473
0.008015 -0.019208 -0.011746
-0.009121 -0.018708 -0.011746
-0.008335 -0.019070 -0.011746
-0.008568 -0.018968 -0.011746
-0.008568 -0.019070 -0.011606
0.008335 -0.019070 -0.011746
0.008568 -0.018968 -0.011746
0.008568 -0.019070 -0.011606
0.009121 -0.018708 -0.011746
-0.010226 -0.018127 -0.011746
-0.009501 -0.018518 -0.011746
-0.009673 -0.018429 -0.011746
-0.009673 -0.018518 -0.011628
0.009501 -0.018518 -0.011746
0.009673 -0.018429 -0.011746
0.009673 -0.018518 -0.011628
0.010226 -0.018127 -0.011746
-0.011332 -0.017458 -0.011746
-0.010508 -0.017965 -0.011746
-0.010779 -0.017804 -0.011746
-0.010779 -0.017965 -0.011539
0.010508 -0.017965 -0.011746
0.010779 -0.017804 -0.011746
0.010779 -0.017965 -0.011539
0.011332 -0.017458 -0.011746
-0.011402 -0.017412 -0.011746
-0.011884 -0.017086 -0.011746
0.011402 -0.017412 -0.011746
0.011884 -0.017086 -0.011746
-0.012203 -0.016859 -0.011746
-0.012437 -0.016688 -0.011746
-0.012437 -0.016859 -0.011539
0.012203 -0.016859 -0.011746
0.012437 -0.016688 -0.011746
0.012437 -0.016859 -0.011539
-0.013543 -0.015805 -0.011746
-0.012934 -0.016307 -0.011746
-0.012990 -0.016262 -0.011746
-0.012990 -0.016307 -0.011695
0.012934 -0.016307 -0.011746
0.012990 -0.016262 -0.011746
0.012990 -0.016307 -0.011695
0.013543 -0.015805 -0.011746
-0.013602 -0.015754 -0.011746
-0.014095 -0.015313 -0.011746
0.013602 -0.015754 -0.011746
0.014095 -0.015313 -0.011746
-0.014216 -0.015201 -0.011746
-0.014648 -0.014785 -0.011746
0.014216 -0.015201 -0.011746
0.014648 -0.014785 -0.011746
-0.014785 -0.014648 -0.011746
-0.015201 -0.014216 -0.011746
0.014785 -0.014648 -0.011746
0.015201 -0.014216 -0.011746
-0.015313 -0.014095 -0.011746
-0.015754 -0.013602 -0.011746
0.015313 -0.014095 -0.011746
0.015754 -0.013602 -0.011746
-0.015805 -0.013543 -0.011746
0.015805 -0.013543 -0.011746
-0.016262 -0.012990 -0.011746
-0.016307 -0.012934 -0.011746
-0.016307 -0.012990 -0.011695
0.016262 -0.012990 -0.011746
0.016307 -0.012934 -0.011746
0.016307 -0.012990 -0.011695
-0.016688 -0.012437 -0.011746
-0.016859 -0.012203 -0.011746
-0.016859 -0.012437 -0.011539
0.016688 -0.012437 -0.011746
0.016859 -0.012203 -0.011746
0.016859 -0.012437 -0.011539
-0.017086 -0.011884 -0.011746
-0.017412 -0.011402 -0.011746
0.017086 -0.011884 -0.011746
0.017412 -0.011402 -0.011746
-0.017458 -0.011332 -0.011746
0.017458 -0.011332 -0.011746
-0.017804 -0.010779 -0.011746
-0.017965 -0.010508 -0.011746
-0.017965 -0.010779 -0.011539
0.017804 -0.010779 -0.011746
0.017965 -0.010508 -0.011746
0.017965 -0.010779 -0.011539
-0.018127 -0.010226 -0.011746
0.018127 -0.010226 -0.011746
-0.018429 -0.009673 -0.011746
-0.018518 -0.009501 -0.011746
-0.018518 -0.009673 -0.011628
0.018429 -0.009673 -0.011746
0.018518 -0.009501 -0.011746
0.018518 -0.009673 -0.011628
-0.018708 -0.009121 -0.011746
0.018708 -0.009121 -0.011746
-0.018968 -0.008568 -0.011746
-0.019070 -0.008335 -0.011746
-0.019070 -0.008568 -0.011606
0.018968 -0.008568 -0.011746
0.019070 -0.008335 -0.011746
0.019070 -0.008568 -0.011606
-0.019208 -0.008015 -0.011746
0.019208 -0.008015 -0.011746
-0.019429 -0.007462 -0.011746
-0.019623 -0.006939 -0.011746
-0.019623 -0.007462 -0.011473
0.019429 -0.007462 -0.011746
0.019623 -0.006939 -0.011746
0.019623 -0.007462 -0.011473
-0.019634 -0.006910 -0.011746
0.019634 -0.006910 -0.011746
-0.019818 -0.006357 -0.011746
0.019818 -0.006357 -0.011746
-0.019987 -0.005804 -0.011746
-0.020176 -0.005804 -0.011473
0.019987 -0.005804 -0.011746
0.020176 -0.005804 -0.011473
-0.020140 -0.005251 -0.011746
-0.020176 -0.005109 -0.011746
-0.020176 -0.005251 -0.011695
0.020140 -0.005251 -0.011746
0.020176 -0.005109 -0.011746
0.020176 -0.005251 -0.011695
-0.020276 -0.004698 -0.011746
0.020276 -0.004698 -0.011746
-0.020395 -0.004146 -0.011746
0.020395 -0.004146 -0.011746
-0.020500 -0.003593 -0.011746
0.020500 -0.003593 -0.011746
-0.020590 -0.003040 -0.011746
-0.020729 -0.003040 -0.011539
0.020590 -0.003040 -0.011746
0.020729 -0.003040 -0.011539
-0.020664 -0.002487 -0.011746
-0.020729 -0.002487 -0.011650
0.020664 -0.002487 -0.011746
0.020729 -0.002487 -0.011650
-0.020724 -0.001935 -0.011746
-0.020729 -0.001877 -0.011746
-0.020729 -0.001935 -0.011739
0.020724 -0.001935 -0.011746
0.020729 -0.001877 -0.011746
0.020729 -0.001935 -0.011739
-0.020768 -0.001382 -0.011746
0.020768 -0.001382 -0.011746
-0.020797 -0.000829 -0.011746
0.020797 -0.000829 -0.011746
-0.020811 -0.000276 -0.011746
0.020811 -0.000276 -0.011746
-0.020811 0.000276 -0.011746
0.020811 0.000276 -0.011746
-0.020797 0.000829 -0.011746
0.020797 0.000829 -0.011746
-0.020768 0.001382 -0.011746
-0.020729 0.001877 -0.011746
0.020768 0.001382 -0.011746
0.020729 0.001877 -0.011746
-0.020724 0.001935 -0.011746
-0.020729 0.001935 -0.011739
0.020724 0.001935 -0.011746
0.020729 0.001935 -0.011739
-0.020664 0.002487 -0.011746
-0.020729 0.002487 -0.011650
0.020664 0.002487 -0.011746
0.020729 0.002487 -0.011650
-0.020590 0.003040 -0.011746
-0.020729 0.003040 -0.011539
0.020590 0.003040 -0.011746
0.020729 0.003040 -0.011539
-0.020500 0.003593 -0.011746
0.020500 0.003593 -0.011746
-0.020395 0.004146 -0.011746
0.020395 0.004146 -0.011746
-0.020276 0.004698 -0.011746
-0.020176 0.005109 -0.011746
0.020276 0.004698 -0.011746
0.020176 0.005109 -0.011746
-0.020140 0.005251 -0.011746
-0.020176 0.005251 -0.011695
0.020140 0.005251 -0.011746
0.020176 0.005251 -0.011695
-0.019987 0.005804 -0.011746
-0.020176 0.005804 -0.011473
0.019987 0.005804 -0.011746
0.020176 0.005804 -0.011473
-0.019818 0.006357 -0.011746
0.019818 0.006357 -0.011746
-0.019634 0.006910 -0.011746
-0.019623 0.006939 -0.011746
0.019634 0.006910 -0.011746
0.019623 0.006939 -0.011746
-0.019429 0.007462 -0.011746
-0.019623 0.007462 -0.011473
0.019429 0.007462 -0.011746
0.019623 0.007462 -0.011473
-0.019208 0.008015 -0.011746
-0.019070 0.008335 -0.011746
0.019208 0.008015 -0.011746
0.019070 0.008335 -0.011746
-0.018968 0.008568 -0.011746
-0.019070 0.008568 -0.011606
0.018968 0.008568 -0.011746
0.019070 0.008568 -0.011606
-0.018708 0.009121 -0.011746
-0.018518 0.009501 -0.011746
0.018708 0.009121 -0.011746
0.018518 0.009501 -0.011746
-0.018429 0.009673 -0.011746
-0.018518 0.009673 -0.011628
0.018429 0.009673 -0.011746
0.018518 0.009673 -0.011628
-0.018127 0.010226 -0.011746
-0.017965 0.010508 -0.011746
0.018127 0.010226 -0.011746
0.017965 0.010508 -0.011746
-0.017804 0.010779 -0.011746
-0.017965 0.010779 -0.011539
0.017804 0.010779 -0.011746
0.017965 0.010779 -0.011539
-0.017458 0.011332 -0.011746
-0.017412 0.011402 -0.011746
0.017458 0.011332 -0.011746
0.017412 0.011402 -0.011746
-0.017086 0.011884 -0.011746
-0.016859 0.012203 -0.011746
0.017086 0.011884 -0.011746
0.016859 0.012203 -0.011746
-0.016688 0.012437 -0.011746
-0.016859 0.012437 -0.011539
-0.016307 0.012934 -0.011746
0.016688 0.012437 -0.011746
0.016307 0.012934 -0.011746
0.016859 0.012437 -0.011539
-0.016262 0.012990 -0.011746
-0.016307 0.012990 -0.011695
0.016262 0.012990 -0.011746
0.016307 0.012990 -0.011695
-0.015805 0.013543 -0.011746
-0.015754 0.013602 -0.011746
0.015805 0.013543 -0.011746
0.015754 0.013602 -0.011746
-0.015313 0.014095 -0.011746
-0.015201 0.014216 -0.011746
0.015313 0.014095 -0.011746
0.015201 0.014216 -0.011746
-0.014785 0.014648 -0.011746
-0.014648 0.014785 -0.011746
0.014785 0.014648 -0.011746
0.014648 0.014785 -0.011746
-0.014216 0.015201 -0.011746
-0.014095 0.015313 -0.011746
0.014216 0.015201 -0.011746
0.014095 0.015313 -0.011746
-0.013602 0.015754 -0.011746
-0.013543 0.015805 -0.011746
-0.012990 0.016262 -0.011746
0.012990 0.016262 -0.011746
0.013602 0.015754 -0.011746
0.013543 0.015805 -0.011746
-0.012934 0.016307 -0.011746
-0.012990 0.016307 -0.011695
-0.012437 0.016688 -0.011746
0.012934 0.016307 -0.011746
0.012437 0.016688 -0.011746
0.012990 0.016307 -0.011695
-0.012203 0.016859 -0.011746
-0.012437 0.016859 -0.011539
-0.011884 0.017086 -0.011746
0.012203 0.016859 -0.011746
0.011884 0.017086 -0.011746
0.012437 0.016859 -0.011539
-0.011402 0.017412 -0.011746
-0.011332 0.017458 -0.011746
-0.010779 0.017804 -0.011746
0.010779 0.017804 -0.011746
0.011402 0.017412 -0.011746
0.011332 0.017458 -0.011746
-0.010508 0.017965 -0.011746
-0.010779 0.017965 -0.011539
-0.010226 0.018127 -0.011746
-0.009673 0.018429 -0.011746
0.009673 0.018429 -0.011746
0.010508 0.017965 -0.011746
0.010226 0.018127 -0.011746
0.010779 0.017965 -0.011539
-0.009501 0.018518 -0.011746
-0.009673 0.018518 -0.011628
-0.009121 0.018708 -0.011746
-0.008568 0.018968 -0.011746
0.008568 0.018968 -0.011746
0.009501 0.018518 -0.011746
0.009121 0.018708 -0.011746
0.009673 0.018518 -0.011628
-0.008335 0.019070 -0.011746
-0.008568 0.019070 -0.011606
-0.008015 0.019208 -0.011746
-0.007462 0.019429 -0.011746
0.007462 0.019429 -0.011746
0.008335 0.019070 -0.011746
0.008015 0.019208 -0.011746
0.008568 0.019070 -0.011606
-0.006939 0.019623 -0.011746
-0.007462 0.019623 -0.011473
-0.006910 0.019634 -0.011746
-0.006357 0.019818 -0.011746
-0.005804 0.019987 -0.011746
-0.005251 0.020140 -0.011746
0.005251 0.020140 -0.011746
0.005804 0.019987 -0.011746
0.006357 0.019818 -0.011746
0.006939 0.019623 -0.011746
0.006910 0.019634 -0.011746
0.007462 0.019623 -0.011473
-0.005804 0.020176 -0.011473
-0.005109 0.020176 -0.011746
-0.005251 0.020176 -0.011695
-0.004698 0.020276 -0.011746
-0.004146 0.020395 -0.011746
-0.003593 0.020500 -0.011746
-0.003040 0.020590 -0.011746
-0.002487 0.020664 -0.011746
-0.001935 0.020724 -0.011746
0.001935 0.020724 -0.011746
0.002487 0.020664 -0.011746
0.003040 0.020590 -0.011746
0.003593 0.020500 -0.011746
0.004146 0.020395 -0.011746
0.005109 0.020176 -0.011746
0.004698 0.020276 -0.011746
0.005251 0.020176 -0.011695
0.005804 0.020176 -0.011473
-0.003040 0.020729 -0.011539
-0.002487 0.020729 -0.011650
-0.001877 0.020729 -0.011746
-0.001935 0.020729 -0.011739
-0.001382 0.020768 -0.011746
-0.000829 0.020797 -0.011746
-0.000276 0.020811 -0.011746
0.000276 0.020811 -0.011746
0.000829 0.020797 -0.011746
0.001877 0.020729 -0.011746
0.001382 0.020768 -0.011746
0.001935 0.020729 -0.011739
0.002487 0.020729 -0.011650
0.003040 0.020729 -0.011539
-0.003040 -0.020774 -0.011470
-0.002487 -0.020847 -0.011470
-0.001935 -0.020905 -0.011470
-0.001382 -0.020949 -0.011470
-0.000829 -0.020978 -0.011470
-0.000276 -0.020992 -0.011470
0.000276 -0.020992 -0.011470
0.000829 -0.020978 -0.011470
0.001382 -0.020949 -0.011470
0.001935 -0.020905 -0.011470
0.002487 -0.020847 -0.011470
0.003040 -0.020774 -0.011470
-0.005804 -0.020178 -0.011470
-0.005251 -0.020327 -0.011470
-0.004698 -0.020462 -0.011470
-0.004146 -0.020581 -0.011470
-0.004146 -0.020729 -0.011250
-0.003328 -0.020729 -0.011470
-0.003593 -0.020686 -0.011470
-0.003593 -0.020729 -0.011406
0.003328 -0.020729 -0.011470
0.003593 -0.020686 -0.011470
0.003593 -0.020729 -0.011406
0.004146 -0.020581 -0.011470
0.004146 -0.020729 -0.011250
0.004698 -0.020462 -0.011470
0.005251 -0.020327 -0.011470
0.005804 -0.020178 -0.011470
-0.007462 -0.019625 -0.011470
-0.006910 -0.019825 -0.011470
-0.005810 -0.020176 -0.011470
-0.006357 -0.020009 -0.011470
-0.006357 -0.020176 -0.011228
0.005810 -0.020176 -0.011470
0.006357 -0.020009 -0.011470
0.006357 -0.020176 -0.011228
0.006910 -0.019825 -0.011470
0.007462 -0.019625 -0.011470
-0.008568 -0.019167 -0.011470
-0.007467 -0.019623 -0.011470
-0.008015 -0.019404 -0.011470
0.007467 -0.019623 -0.011470
0.008015 -0.019404 -0.011470
0.008568 -0.019167 -0.011470
-0.009673 -0.018633 -0.011470
-0.008779 -0.019070 -0.011470
-0.009121 -0.018910 -0.011470
-0.009121 -0.019070 -0.011250
0.008779 -0.019070 -0.011470
0.009121 -0.018910 -0.011470
0.009121 -0.019070 -0.011250
0.009673 -0.018633 -0.011470
-0.010779 -0.018017 -0.011470
-0.009892 -0.018518 -0.011470
-0.010226 -0.018335 -0.011470
-0.010226 -0.018518 -0.011228
0.009892 -0.018518 -0.011470
0.010226 -0.018335 -0.011470
0.010226 -0.018518 -0.011228
0.010779 -0.018017 -0.011470
-0.010865 -0.017965 -0.011470
-0.011332 -0.017673 -0.011470
0.010865 -0.017965 -0.011470
0.011332 -0.017673 -0.011470
-0.012437 -0.016915 -0.011470
-0.011730 -0.017412 -0.011470
-0.011884 -0.017307 -0.011470
-0.011884 -0.017412 -0.011339
0.011730 -0.017412 -0.011470
0.011884 -0.017307 -0.011470
0.011884 -0.017412 -0.011339
0.012437 -0.016915 -0.011470
-0.012512 -0.016859 -0.011470
-0.012990 -0.016493 -0.011470
0.012512 -0.016859 -0.011470
0.012990 -0.016493 -0.011470
-0.013223 -0.016307 -0.011470
-0.013543 -0.016042 -0.011470
0.013223 -0.016307 -0.011470
0.013543 -0.016042 -0.011470
-0.013877 -0.015754 -0.011470
-0.014095 -0.015559 -0.011470
-0.014095 -0.015754 -0.011250
0.013877 -0.015754 -0.011470
0.014095 -0.015559 -0.011470
0.014095 -0.015754 -0.011250
-0.014481 -0.015201 -0.011470
-0.014648 -0.015040 -0.011470
-0.014648 -0.015201 -0.011295
0.014481 -0.015201 -0.011470
0.014648 -0.015040 -0.011470
0.014648 -0.015201 -0.011295
-0.015040 -0.014648 -0.011470
-0.015201 -0.014481 -0.011470
-0.015201 -0.014648 -0.011295
0.015040 -0.014648 -0.011470
0.015201 -0.014481 -0.011470
0.015201 -0.014648 -0.011295
-0.015559 -0.014095 -0.011470
-0.015754 -0.013877 -0.011470
-0.015754 -0.014095 -0.011250
0.015559 -0.014095 -0.011470
0.015754 -0.013877 -0.011470
0.015754 -0.014095 -0.011250
-0.016042 -0.013543 -0.011470
-0.016307 -0.013223 -0.011470
0.016042 -0.013543 -0.011470
0.016307 -0.013223 -0.011470
-0.016493 -0.012990 -0.011470
-0.016859 -0.012512 -0.011470
0.016493 -0.012990 -0.011470
0.016859 -0.012512 -0.011470
-0.016915 -0.012437 -0.011470
0.016915 -0.012437 -0.011470
-0.017307 -0.011884 -0.011470
-0.017412 -0.011730 -0.011470
-0.017412 -0.011884 -0.011339
0.017307 -0.011884 -0.011470
0.017412 -0.011730 -0.011470
0.017412 -0.011884 -0.011339
-0.017673 -0.011332 -0.011470
-0.017965 -0.010865 -0.011470
0.017673 -0.011332 -0.011470
0.017965 -0.010865 -0.011470
-0.018017 -0.010779 -0.011470
0.018017 -0.010779 -0.011470
-0.018335 -0.010226 -0.011470
-0.018518 -0.009892 -0.011470
-0.018518 -0.010226 -0.011228
0.018335 -0.010226 -0.011470
0.018518 -0.009892 -0.011470
0.018518 -0.010226 -0.011228
-0.018633 -0.009673 -0.011470
0.018633 -0.009673 -0.011470
-0.018910 -0.009121 -0.011470
-0.019070 -0.008779 -0.011470
-0.019070 -0.009121 -0.011250
0.018910 -0.009121 -0.011470
0.019070 -0.008779 -0.011470
0.019070 -0.009121 -0.011250
-0.019167 -0.008568 -0.011470
0.019167 -0.008568 -0.011470
-0.019404 -0.008015 -0.011470
-0.019623 -0.007467 -0.011470
0.019404 -0.008015 -0.011470
0.019623 -0.007467 -0.011470
-0.019625 -0.007462 -0.011470
0.019625 -0.007462 -0.011470
-0.019825 -0.006910 -0.011470
0.019825 -0.006910 -0.011470
-0.020009 -0.006357 -0.011470
-0.020176 -0.005810 -0.011470
-0.020176 -0.006357 -0.011228
0.020009 -0.006357 -0.011470
0.020176 -0.005810 -0.011470
0.020176 -0.006357 -0.011228
-0.020178 -0.005804 -0.011470
0.020178 -0.005804 -0.011470
-0.020327 -0.005251 -0.011470
0.020327 -0.005251 -0.011470
-0.020462 -0.004698 -0.011470
0.020462 -0.004698 -0.011470
-0.020581 -0.004146 -0.011470
-0.020729 -0.004146 -0.011250
0.020581 -0.004146 -0.011470
0.020729 -0.004146 -0.011250
-0.020686 -0.003593 -0.011470
-0.020729 -0.003328 -0.011470
-0.020729 -0.003593 -0.011406
0.020686 -0.003593 -0.011470
0.020729 -0.003328 -0.011470
0.020729 -0.003593 -0.011406
-0.020774 -0.003040 -0.011470
0.020774 -0.003040 -0.011470
-0.020847 -0.002487 -0.011470
0.020847 -0.002487 -0.011470
-0.020905 -0.001935 -0.011470
0.020905 -0.001935 -0.011470
-0.020949 -0.001382 -0.011470
0.020949 -0.001382 -0.011470
-0.020978 -0.000829 -0.011470
0.020978 -0.000829 -0.011470
-0.020992 -0.000276 -0.011470
0.020992 -0.000276 -0.011470
-0.020992 0.000276 -0.011470
0.020992 0.000276 -0.011470
-0.020978 0.000829 -0.011470
0.020978 0.000829 -0.011470
-0.020949 0.001382 -0.011470
0.020949 0.001382 -0.011470
-0.020905 0.001935 -0.011470
0.020905 0.001935 -0.011470
-0.020847 0.002487 -0.011470
0.020847 0.002487 -0.011470
-0.020774 0.003040 -0.011470
-0.020729 0.003328 -0.011470
0.020774 0.003040 -0.011470
0.020729 0.003328 -0.011470
-0.020686 0.003593 -0.011470
-0.020729 0.003593 -0.011406
0.020686 0.003593 -0.011470
0.020729 0.003593 -0.011406
-0.020581 0.004146 -0.011470
-0.020729 0.004146 -0.011250
0.020581 0.004146 -0.011470
0.020729 0.004146 -0.011250
-0.020462 0.004698 -0.011470
0.020462 0.004698 -0.011470
-0.020327 0.005251 -0.011470
0.020327 0.005251 -0.011470
-0.020178 0.005804 -0.011470
-0.020176 0.005810 -0.011470
0.020178 0.005804 -0.011470
0.020176 0.005810 -0.011470
-0.020009 0.006357 -0.011470
-0.020176 0.006357 -0.011228
0.020009 0.006357 -0.011470
0.020176 0.006357 -0.011228
-0.019825 0.006910 -0.011470
0.019825 0.006910 -0.011470
-0.019625 0.007462 -0.011470
-0.019623 0.007467 -0.011470
0.019625 0.007462 -0.011470
0.019623 0.007467 -0.011470
-0.019404 0.008015 -0.011470
0.019404 0.008015 -0.011470
-0.019167 0.008568 -0.011470
-0.019070 0.008779 -0.011470
0.019167 0.008568 -0.011470
0.019070 0.008779 -0.011470
-0.018910 0.009121 -0.011470
-0.019070 0.009121 -0.011250
0.018910 0.009121 -0.011470
0.019070 0.009121 -0.011250
-0.018633 0.009673 -0.011470
-0.018518 0.009892 -0.011470
0.018633 0.009673 -0.011470
0.018518 0.009892 -0.011470
-0.018335 0.010226 -0.011470
-0.018518 0.010226 -0.011228
0.018335 0.010226 -0.011470
0.018518 0.010226 -0.011228
-0.018017 0.010779 -0.011470
-0.017965 0.010865 -0.011470
0.018017 0.010779 -0.011470
0.017965 0.010865 -0.011470
-0.017673 0.011332 -0.011470
-0.017412 0.011730 -0.011470
0.017673 0.011332 -0.011470
0.017412 0.011730 -0.011470
-0.017307 0.011884 -0.011470
-0.017412 0.011884 -0.011339
0.017307 0.011884 -0.011470
0.017412 0.011884 -0.011339
-0.016915 0.012437 -0.011470
-0.016859 0.012512 -0.011470
0.016915 0.012437 -0.011470
0.016859 0.012512 -0.011470
-0.016493 0.012990 -0.011470
-0.016307 0.013223 -0.011470
0.016493 0.012990 -0.011470
0.016307 0.013223 -0.011470
-0.016042 0.013543 -0.011470
-0.015754 0.013877 -0.011470
0.016042 0.013543 -0.011470
0.015754 0.013877 -0.011470
-0.015559 0.014095 -0.011470
-0.015754 0.014095 -0.011250
-0.015201 0.014481 -0.011470
0.015559 0.014095 -0.011470
0.015201 0.014481 -0.011470
0.015754 0.014095 -0.011250
-0.015040 0.014648 -0.011470
-0.015201 0.014648 -0.011295
-0.014648 0.015040 -0.011470
0.015040 0.014648 -0.011470
0.014648 0.015040 -0.011470
0.015201 0.014648 -0.011295
-0.014481 0.015201 -0.011470
-0.014648 0.015201 -0.011295
-0.014095 0.015559 -0.011470
0.014481 0.015201 -0.011470
0.014095 0.015559 -0.011470
0.014648 0.015201 -0.011295
-0.013877 0.015754 -0.011470
-0.014095 0.015754 -0.011250
-0.013543 0.016042 -0.011470
0.013877 0.015754 -0.011470
0.013543 0.016042 -0.011470
0.014095 0.015754 -0.011250
-0.013223 0.016307 -0.011470
-0.012990 0.016493 -0.011470
0.013223 0.016307 -0.011470
0.012990 0.016493 -0.011470
-0.012512 0.016859 -0.011470
-0.012437 0.016915 -0.011470
-0.011884 0.017307 -0.011470
0.011884 0.017307 -0.011470
0.012512 0.016859 -0.011470
0.012437 0.016915 -0.011470
-0.011730 0.017412 -0.011470
-0.011884 0.017412 -0.011339
-0.011332 0.017673 -0.011470
0.011730 0.017412 -0.011470
0.011332 0.017673 -0.011470
0.011884 0.017412 -0.011339
-0.010865 0.017965 -0.011470
-0.010779 0.018017 -0.011470
-0.010226 0.018335 -0.011470
0.010226 0.018335 -0.011470
0.010865 0.017965 -0.011470
0.010779 0.018017 -0.011470
-0.009892 0.018518 -0.011470
-0.010226 0.018518 -0.011228
-0.009673 0.018633 -0.011470
-0.009121 0.018910 -0.011470
0.009121 0.018910 -0.011470
0.009892 0.018518 -0.011470
0.009673 0.018633 -0.011470
0.010226 0.018518 -0.011228
-0.008779 0.019070 -0.011470
-0.009121 0.019070 -0.011250
-0.008568 0.019167 -0.011470
-0.008015 0.019404 -0.011470
0.008015 0.019404 -0.011470
0.008779 0.019070 -0.011470
0.008568 0.019167 -0.011470
0.009121 0.019070 -0.011250
-0.007467 0.019623 -0.011470
-0.007462 0.019625 -0.011470
-0.006910 0.019825 -0.011470
-0.006357 0.020009 -0.011470
0.006357 0.020009 -0.011470
0.006910 0.019825 -0.011470
