830
0.218 0.266 0.066
0.219 0.265 0.066
0.205 0.298 0.067
0.207 0.292 0.067
0.207 0.294 0.067
0.212 0.275 0.067
0.222 0.262 0.067
0.22 0.233 0.07
0.202 0.301 0.071
0.222 0.231 0.071
0.215 0.238 0.073
0.202 0.297 0.074
0.203 0.292 0.074
0.199 0.3 0.075
0.205 0.289 0.075
0.196 0.306 0.076
0.229 0.252 0.076
0.183 0.321 0.077
0.211 0.284 0.077
0.212 0.282 0.077
0.235 0.245 0.077
0.194 0.306 0.078
0.202 0.296 0.078
0.211 0.286 0.078
0.236 0.242 0.078
0.237 0.241 0.078
0.201 0.298 0.079
0.203 0.294 0.079
0.215 0.24 0.079
0.231 0.224 0.079
0.238 0.238 0.079
0.239 0.213 0.079
0.239 0.217 0.079
0.239 0.218 0.079
0.239 0.234 0.079
0.24 0.217 0.079
0.24 0.219 0.079
0.24 0.232 0.079
0.241 0.212 0.079
0.241 0.218 0.079
0.241 0.228 0.079
0.242 0.22 0.079
0.242 0.225 0.079
0.242 0.226 0.079
0.243 0.221 0.079
0.243 0.222 0.079
0.243 0.223 0.079
0.244 0.218 0.079
0.244 0.219 0.079
0.202 0.296 0.08
0.238 0.216 0.08
0.239 0.214 0.08
0.241 0.219 0.08
0.243 0.218 0.08
0.199 0.299 0.081
0.236 0.218 0.081
0.238 0.218 0.081
0.239 0.218 0.081
0.24 0.214 0.081
0.24 0.219 0.081
0.241 0.215 0.081
0.241 0.216 0.081
0.242 0.217 0.081
0.188 0.312 0.082
0.207 0.246 0.082
0.209 0.244 0.082
0.211 0.244 0.083
0.173 0.322 0.084
0.181 0.317 0.084
0.212 0.243 0.084
0.201 0.3 0.085
0.192 0.309 0.086
0.213 0.242 0.086
0.17 0.321 0.087
0.206 0.248 0.087
0.212 0.244 0.088
0.216 0.288 0.088
0.217 0.286 0.088
0.217 0.287 0.088
0.172 0.322 0.089
0.215 0.242 0.089
0.215 0.29 0.089
0.207 0.299 0.09
0.211 0.296 0.091
0.169 0.324 0.092
0.17 0.324 0.093
0.177 0.322 0.093
0.226 0.276 0.093
0.231 0.268 0.093
0.23 0.271 0.094
0.234 0.264 0.094
0.236 0.26 0.094
0.238 0.256 0.094
0.241 0.248 0.094
0.226 0.28 0.095
0.24 0.251 0.095
0.242 0.246 0.095
0.245 0.237 0.095
0.222 0.287 0.096
0.225 0.283 0.096
0.228 0.278 0.096
0.243 0.244 0.096
0.244 0.241 0.096
0.247 0.232 0.096
0.249 0.224 0.096
0.092 0.314 0.097
0.18 0.325 0.097
0.213 0.3 0.097
0.222 0.289 0.097
0.239 0.219 0.097
0.247 0.213 0.097
0.247 0.214 0.097
0.248 0.228 0.097
0.248 0.23 0.097
0.249 0.214 0.097
0.249 0.215 0.097
0.25 0.216 0.097
0.09 0.312 0.098
0.175 0.328 0.098
0.183 0.326 0.098
0.23 0.275 0.098
0.233 0.229 0.098
0.239 0.222 0.098
0.25 0.218 0.098
0.251 0.217 0.098
0.089 0.312 0.099
0.167 0.329 0.099
0.185 0.325 0.099
0.191 0.322 0.099
0.225 0.281 0.099
0.246 0.212 0.099
0.247 0.215 0.099
0.248 0.215 0.099
0.248 0.217 0.099
0.249 0.216 0.099
0.249 0.217 0.099
0.252 0.217 0.099
0.128 0.337 0.1
0.13 0.337 0.1
0.168 0.332 0.1
0.175 0.331 0.1
0.185 0.325 0.1
0.187 0.325 0.1
0.218 0.296 0.1
0.242 0.218 0.1
0.245 0.214 0.1
0.246 0.213 0.1
0.246 0.214 0.1
0.247 0.212 0.1
0.252 0.216 0.1
0.083 0.307 0.101
0.126 0.337 0.101
0.133 0.339 0.101
0.197 0.32 0.101
0.232 0.275 0.101
0.248 0.211 0.101
0.249 0.212 0.101
0.252 0.215 0.101
0.081 0.306 0.102
0.124 0.338 0.102
0.181 0.331 0.102
0.184 0.325 0.102
0.25 0.213 0.102
0.252 0.215 0.102
0.12 0.338 0.103
0.143 0.339 0.103
0.144 0.34 0.103
0.144 0.341 0.103
0.177 0.333 0.103
0.178 0.333 0.103
0.183 0.326 0.103
0.185 0.33 0.103
0.251 0.213 0.103
0.08 0.304 0.104
0.183 0.332 0.104
0.232 0.276 0.104
0.233 0.275 0.104
0.252 0.214 0.104
0.252 0.216 0.104
0.234 0.274 0.105
0.237 0.266 0.105
0.251 0.213 0.105
0.076 0.3 0.106
0.08 0.308 0.106
0.119 0.339 0.106
0.131 0.343 0.106
0.138 0.345 0.106
0.23 0.279 0.106
0.23 0.282 0.106
0.23 0.283 0.106
0.235 0.272 0.106
0.236 0.269 0.106
0.237 0.267 0.106
0.238 0.264 0.106
0.239 0.262 0.106
0.24 0.26 0.106
0.242 0.254 0.106
0.25 0.213 0.106
0.072 0.298 0.107
0.074 0.299 0.107
0.113 0.339 0.107
0.116 0.339 0.107
0.12 0.341 0.107
0.128 0.344 0.107
0.137 0.345 0.107
0.179 0.337 0.107
0.205 0.318 0.107
0.227 0.288 0.107
0.244 0.25 0.107
0.249 0.214 0.107
0.249 0.215 0.107
0.08 0.309 0.108
0.181 0.337 0.108
0.191 0.332 0.108
0.191 0.333 0.108
0.246 0.243 0.108
0.246 0.245 0.108
0.248 0.216 0.108
0.073 0.299 0.109
0.112 0.338 0.109
0.121 0.342 0.109
0.124 0.344 0.109
0.245 0.247 0.109
0.247 0.217 0.109
0.247 0.218 0.109
0.247 0.219 0.109
0.248 0.238 0.109
0.077 0.307 0.11
0.116 0.341 0.11
0.249 0.234 0.11
0.251 0.227 0.11
0.065 0.292 0.111
0.07 0.296 0.111
0.079 0.31 0.111
0.113 0.34 0.111
0.137 0.348 0.111
0.171 0.341 0.111
0.172 0.343 0.111
0.183 0.338 0.111
0.247 0.241 0.111
0.25 0.23 0.111
0.25 0.232 0.111
0.251 0.228 0.111
0.252 0.225 0.111
0.066 0.292 0.112
0.17 0.346 0.112
0.184 0.339 0.112
0.067 0.291 0.113
0.074 0.305 0.113
0.075 0.306 0.113
0.078 0.31 0.113
0.095 0.332 0.113
0.101 0.335 0.113
0.101 0.336 0.113
0.111 0.34 0.113
0.133 0.348 0.113
0.155 0.349 0.113
0.171 0.346 0.113
0.185 0.339 0.113
0.193 0.333 0.113
0.205 0.322 0.113
0.206 0.322 0.113
0.21 0.318 0.113
0.1 0.333 0.114
0.112 0.341 0.114
0.165 0.349 0.114
0.187 0.338 0.114
0.194 0.334 0.114
0.207 0.321 0.114
0.21 0.317 0.114
0.072 0.3 0.115
0.125 0.347 0.115
0.214 0.313 0.115
0.215 0.311 0.115
0.217 0.309 0.115
0.066 0.289 0.116
0.132 0.349 0.116
0.16 0.35 0.116
0.184 0.341 0.116
0.198 0.33 0.116
0.23 0.286 0.116
0.231 0.284 0.116
0.071 0.299 0.117
0.077 0.309 0.117
0.127 0.348 0.117
0.133 0.35 0.117
0.14 0.351 0.117
0.151 0.352 0.117
0.161 0.35 0.117
0.194 0.334 0.117
0.213 0.315 0.117
0.228 0.29 0.117
0.23 0.288 0.117
0.235 0.276 0.117
0.236 0.272 0.117
0.236 0.274 0.117
0.238 0.269 0.117
0.238 0.27 0.117
0.239 0.266 0.117
0.239 0.267 0.117
0.24 0.263 0.117
0.24 0.264 0.117
0.241 0.261 0.117
0.242 0.258 0.117
0.242 0.259 0.117
0.066 0.289 0.118
0.119 0.345 0.118
0.185 0.341 0.118
0.192 0.337 0.118
0.243 0.256 0.118
0.244 0.253 0.118
0.244 0.254 0.118
0.245 0.251 0.118
0.247 0.244 0.118
0.071 0.299 0.119
0.077 0.309 0.119
0.118 0.345 0.119
0.121 0.346 0.119
0.127 0.348 0.119
0.213 0.315 0.119
0.246 0.247 0.119
0.247 0.242 0.119
0.065 0.288 0.12
0.071 0.299 0.12
0.116 0.344 0.12
0.124 0.348 0.12
0.126 0.348 0.12
0.159 0.352 0.12
0.225 0.297 0.12
0.249 0.237 0.12
0.065 0.287 0.121
0.076 0.308 0.121
0.099 0.333 0.121
0.101 0.335 0.121
0.11 0.34 0.121
0.112 0.342 0.121
0.129 0.349 0.121
0.135 0.35 0.121
0.142 0.352 0.121
0.144 0.352 0.121
0.154 0.352 0.121
0.155 0.352 0.121
0.157 0.352 0.121
0.163 0.351 0.121
0.165 0.35 0.121
0.177 0.346 0.121
0.182 0.344 0.121
0.184 0.343 0.121
0.071 0.299 0.122
0.076 0.307 0.122
0.131 0.349 0.122
0.146 0.352 0.122
0.148 0.352 0.122
0.15 0.352 0.122
0.193 0.337 0.122
0.072 0.3 0.123
0.074 0.303 0.123
0.128 0.348 0.123
0.174 0.348 0.123
0.179 0.346 0.123
0.187 0.341 0.123
0.189 0.34 0.123
0.073 0.301 0.124
0.097 0.331 0.124
0.104 0.336 0.124
0.124 0.347 0.124
0.195 0.336 0.124
0.213 0.317 0.124
0.071 0.297 0.125
0.126 0.347 0.125
0.128 0.348 0.125
0.189 0.341 0.125
0.069 0.293 0.126
0.195 0.336 0.126
0.07 0.294 0.127
0.105 0.337 0.127
0.117 0.343 0.127
0.121 0.345 0.127
0.166 0.35 0.127
0.245 0.219 0.127
0.115 0.343 0.128
0.187 0.341 0.128
0.213 0.318 0.128
0.221 0.309 0.128
0.24 0.228 0.128
0.076 0.231 0.129
0.077 0.232 0.129
0.078 0.307 0.129
0.079 0.308 0.129
0.08 0.235 0.129
0.084 0.238 0.129
0.094 0.244 0.129
0.117 0.342 0.129
0.127 0.257 0.129
0.139 0.259 0.129
0.177 0.26 0.129
0.189 0.258 0.129
0.233 0.236 0.129
0.235 0.234 0.129
0.237 0.232 0.129
0.241 0.226 0.129
0.243 0.224 0.129
0.249 0.218 0.129
0.25 0.218 0.129
0.251 0.219 0.129
0.252 0.22 0.129
0.07 0.292 0.13
0.078 0.306 0.13
0.106 0.336 0.13
0.125 0.346 0.13
0.134 0.258 0.13
0.136 0.259 0.13
0.175 0.261 0.13
0.196 0.336 0.13
0.212 0.32 0.13
0.226 0.242 0.13
0.236 0.275 0.13
0.245 0.223 0.13
0.252 0.221 0.13
0.072 0.294 0.131
0.119 0.255 0.131
0.168 0.261 0.131
0.191 0.337 0.131
0.192 0.337 0.131
0.197 0.335 0.131
0.201 0.331 0.131
0.225 0.242 0.131
0.228 0.24 0.131
0.237 0.269 0.131
0.237 0.273 0.131
0.24 0.266 0.131
0.241 0.263 0.131
0.246 0.221 0.131
0.246 0.222 0.131
0.25 0.222 0.131
0.251 0.221 0.131
0.103 0.333 0.132
0.105 0.334 0.132
0.111 0.338 0.132
0.112 0.338 0.132
0.12 0.342 0.132
0.158 0.351 0.132
0.165 0.261 0.132
0.206 0.253 0.132
0.208 0.251 0.132
0.21 0.322 0.132
0.241 0.23 0.132
0.241 0.261 0.132
0.242 0.258 0.132
0.243 0.254 0.132
0.244 0.25 0.132
0.244 0.251 0.132
0.245 0.249 0.132
0.247 0.244 0.132
0.249 0.223 0.132
0.251 0.219 0.132
0.078 0.303 0.133
0.08 0.305 0.133
0.085 0.312 0.133
0.089 0.318 0.133
0.091 0.32 0.133
0.099 0.329 0.133
0.127 0.257 0.133
0.159 0.261 0.133
0.182 0.344 0.133
0.195 0.338 0.133
0.197 0.336 0.133
0.199 0.334 0.133
0.207 0.324 0.133
0.251 0.219 0.133
0.093 0.321 0.134
0.103 0.331 0.134
0.108 0.334 0.134
0.123 0.343 0.134
0.165 0.261 0.134
0.241 0.23 0.134
0.248 0.223 0.134
0.251 0.219 0.134
0.079 0.301 0.135
0.083 0.308 0.135
0.099 0.326 0.135
0.102 0.247 0.135
0.103 0.247 0.135
0.118 0.255 0.135
0.149 0.261 0.135
0.149 0.349 0.135
0.151 0.261 0.135
0.166 0.261 0.135
0.177 0.346 0.135
0.207 0.325 0.135
0.241 0.229 0.135
0.249 0.222 0.135
0.251 0.22 0.135
0.079 0.299 0.136
0.117 0.339 0.136
0.167 0.261 0.136
0.177 0.346 0.136
0.185 0.259 0.136
0.238 0.232 0.136
0.242 0.225 0.136
0.242 0.227 0.136
0.25 0.221 0.136
0.067 0.273 0.137
0.068 0.273 0.137
0.109 0.334 0.137
0.13 0.258 0.137
0.139 0.259 0.137
0.159 0.35 0.137
0.171 0.348 0.137
0.181 0.26 0.137
0.183 0.26 0.137
0.201 0.256 0.137
0.205 0.254 0.137
0.208 0.253 0.137
0.21 0.252 0.137
0.212 0.252 0.137
0.214 0.25 0.137
0.216 0.249 0.137
0.219 0.247 0.137
0.221 0.246 0.137
0.228 0.241 0.137
0.23 0.239 0.137
0.232 0.237 0.137
0.234 0.235 0.137
0.236 0.233 0.137
0.248 0.236 0.137
0.249 0.234 0.137
0.081 0.3 0.138
0.099 0.324 0.138
0.109 0.333 0.138
0.141 0.26 0.138
0.147 0.348 0.138
0.168 0.348 0.138
0.184 0.343 0.138
0.186 0.342 0.138
0.187 0.341 0.138
0.2 0.256 0.138
0.206 0.253 0.138
0.245 0.245 0.138
0.245 0.249 0.138
0.246 0.243 0.138
0.247 0.24 0.138
0.072 0.278 0.139
0.1 0.323 0.139
0.122 0.34 0.139
0.132 0.259 0.139
0.133 0.259 0.139
0.138 0.259 0.139
0.144 0.347 0.139
0.155 0.261 0.139
0.162 0.348 0.139
0.167 0.261 0.139
0.175 0.261 0.139
0.177 0.261 0.139
0.18 0.344 0.139
0.182 0.344 0.139
0.186 0.259 0.139
0.189 0.259 0.139
0.192 0.256 0.139
0.192 0.338 0.139
0.195 0.337 0.139
0.196 0.256 0.139
0.198 0.257 0.139
0.073 0.28 0.14
0.083 0.301 0.14
0.097 0.32 0.14
0.098 0.321 0.14
0.155 0.261 0.14
0.163 0.348 0.14
0.17 0.347 0.14
0.199 0.334 0.14
0.201 0.331 0.14
0.085 0.302 0.141
0.097 0.318 0.141
0.118 0.337 0.141
0.156 0.261 0.141
0.171 0.261 0.141
0.173 0.261 0.141
0.181 0.26 0.141
0.096 0.317 0.142
0.113 0.332 0.142
0.124 0.339 0.142
0.127 0.34 0.142
0.139 0.259 0.142
0.145 0.346 0.142
0.153 0.347 0.142
0.159 0.347 0.142
0.173 0.345 0.142
0.088 0.305 0.143
0.093 0.311 0.143
0.108 0.327 0.143
0.112 0.331 0.143
0.115 0.332 0.143
0.117 0.334 0.143
0.126 0.339 0.143
0.129 0.34 0.143
0.135 0.343 0.143
0.138 0.343 0.143
0.14 0.344 0.143
0.146 0.345 0.143
0.148 0.345 0.143
0.15 0.345 0.143
0.155 0.262 0.143
0.155 0.346 0.143
0.157 0.346 0.143
0.173 0.344 0.143
0.118 0.334 0.144
0.134 0.341 0.144
0.14 0.259 0.144
0.142 0.344 0.144
0.092 0.307 0.145
0.094 0.308 0.145
0.103 0.322 0.145
0.122 0.335 0.145
0.126 0.257 0.145
0.14 0.259 0.145
0.149 0.261 0.145
0.151 0.261 0.145
0.153 0.262 0.145
0.193 0.336 0.145
0.094 0.307 0.146
0.141 0.259 0.146
0.165 0.344 0.146
0.17 0.344 0.146
0.095 0.307 0.147
0.122 0.333 0.147
0.124 0.257 0.147
0.124 0.335 0.147
0.142 0.259 0.147
0.148 0.261 0.147
0.16 0.342 0.147
0.167 0.343 0.147
0.189 0.337 0.147
0.192 0.335 0.147
0.102 0.317 0.148
0.126 0.257 0.148
0.134 0.338 0.148
0.157 0.343 0.148
0.221 0.306 0.148
0.094 0.302 0.149
0.105 0.316 0.149
0.13 0.334 0.149
0.134 0.336 0.149
0.146 0.261 0.149
0.157 0.341 0.149
0.169 0.342 0.149
0.171 0.261 0.149
0.18 0.262 0.149
0.126 0.332 0.15
0.172 0.261 0.15
0.173 0.261 0.15
0.173 0.341 0.15
0.187 0.336 0.15
0.101 0.308 0.151
0.102 0.309 0.151
0.104 0.311 0.151
0.123 0.257 0.151
0.129 0.331 0.151
0.133 0.335 0.151
0.144 0.262 0.151
0.151 0.339 0.151
0.153 0.339 0.151
0.155 0.34 0.151
0.169 0.261 0.151
0.169 0.34 0.151
0.176 0.261 0.151
0.176 0.339 0.151
0.178 0.262 0.151
0.181 0.338 0.151
0.106 0.312 0.152
0.181 0.337 0.152
0.104 0.307 0.153
0.11 0.315 0.153
0.134 0.333 0.153
0.142 0.263 0.153
0.167 0.339 0.153
0.143 0.335 0.154
0.149 0.336 0.154
0.1 0.297 0.155
0.104 0.304 0.155
0.112 0.313 0.155
0.123 0.325 0.155
0.135 0.331 0.155
0.163 0.336 0.155
0.18 0.335 0.155
0.097 0.294 0.156
0.103 0.299 0.156
0.104 0.301 0.156
0.105 0.302 0.156
0.115 0.314 0.156
0.123 0.322 0.156
0.144 0.332 0.156
0.153 0.335 0.156
0.164 0.335 0.156
0.165 0.335 0.156
0.105 0.296 0.157
0.106 0.294 0.157
0.108 0.298 0.157
0.129 0.26 0.157
0.138 0.329 0.157
0.165 0.262 0.157
0.166 0.335 0.157
0.173 0.262 0.157
0.173 0.331 0.157
0.175 0.332 0.157
0.122 0.318 0.158
0.136 0.327 0.158
0.141 0.329 0.158
0.158 0.26 0.158
0.166 0.26 0.158
0.168 0.334 0.158
0.116 0.31 0.159
0.14 0.328 0.159
0.151 0.332 0.159
0.166 0.333 0.159
0.167 0.333 0.159
0.177 0.331 0.159
0.183 0.327 0.159
0.183 0.328 0.159
0.183 0.329 0.159
0.152 0.33 0.16
0.168 0.33 0.16
0.169 0.332 0.16
0.17 0.332 0.16
0.192 0.259 0.16
0.193 0.258 0.16
0.129 0.317 0.161
0.149 0.325 0.161
0.152 0.327 0.161
0.163 0.332 0.161
0.169 0.329 0.161
0.137 0.323 0.162
0.126 0.311 0.163
0.127 0.312 0.163
0.154 0.325 0.163
0.157 0.327 0.163
0.129 0.312 0.164
0.13 0.311 0.165
0.131 0.312 0.165
0.135 0.313 0.166
0.142 0.316 0.166
0.137 0.31 0.167
0.139 0.312 0.167
0.14 0.312 0.167
0.169 0.324 0.167
0.17 0.325 0.167
0.138 0.311 0.168
0.167 0.321 0.168
0.145 0.314 0.169
0.138 0.308 0.17
0.133 0.305 0.171
0.138 0.3 0.171
0.146 0.311 0.171
0.159 0.312 0.171
0.162 0.316 0.171
0.162 0.317 0.171
0.157 0.311 0.172
0.159 0.314 0.173
0.147 0.306 0.174
0.143 0.3 0.174
0.138 0.309 0.171
0.138 0.309 0.168
0.127 0.312 0.161
0.177 0.26 0.158
0.118 0.313 0.157
0.117 0.316 0.157
0.116 0.318 0.156
0.144 0.332 0.155
0.125 0.328 0.151
0.172 0.26 0.15
0.221 0.309 0.149
0.185 0.34 0.148
0.104 0.315 0.148
0.091 0.305 0.145
0.161 0.348 0.14
0.182 0.259 0.14
0.22 0.249 0.139
0.241 0.251 0.139
0.161 0.35 0.138
0.068 0.275 0.138
0.247 0.232 0.135
0.095 0.32 0.135
0.112 0.253 0.134
0.111 0.254 0.133
0.194 0.339 0.133
0.244 0.249 0.132
0.077 0.233 0.129
0.123 0.256 0.129
0.199 0.255 0.127
0.225 0.303 0.127
0.097 0.331 0.125
0.073 0.297 0.125
0.164 0.352 0.123
0.113 0.344 0.117
0.112 0.342 0.114
0.111 0.34 0.114
0.162 0.351 0.114
0.072 0.305 0.114
0.175 0.347 0.113
0.134 0.349 0.113
0.081 0.316 0.113
0.074 0.307 0.112
0.172 0.341 0.111
0.155 0.35 0.111
0.082 0.315 0.11
0.146 0.35 0.109
0.084 0.314 0.109
0.125 0.344 0.107
0.229 0.279 0.106
0.08 0.308 0.104
0.195 0.321 0.103
0.18 0.331 0.1
0.17 0.334 0.1
0.175 0.332 0.099
0.183 0.324 0.099
0.093 0.315 0.097
0.172 0.326 0.097
0.235 0.264 0.096
0.172 0.326 0.092
0.17 0.321 0.089
0.2 0.3 0.076
0.203 0.289 0.075
0.215 0.274 0.075
0.201 0.292 0.075
0.186 0.319 0.075
0.215 0.275 0.07
0.211 0.274 0.068
0.215 0.267 0.066
0.208 0.285 0.066
0.215 0.275 0.062
