497
0.051500 0.062000 0.021750
0.053000 0.060750 0.021000
0.052750 0.061000 0.020750
0.052250 0.061000 0.020500
0.051500 0.061750 0.019750
0.053000 0.061000 0.022000
0.053250 0.060500 0.021500
0.053750 0.060000 0.019750
0.053750 0.060500 0.022250
0.053750 0.059500 0.018250
0.055000 0.058250 0.017500
0.055500 0.057750 0.017750
0.057750 0.056000 0.019750
0.060000 0.058000 0.019750
0.060250 0.057000 0.019750
0.059750 0.058500 0.019750
0.049750 0.063750 0.031750
0.058750 0.058500 0.032250
0.058250 0.059000 0.032250
0.060000 0.057000 0.032000
0.059250 0.058000 0.032250
0.056250 0.060500 0.032750
0.056500 0.060500 0.032500
0.052000 0.062750 0.033000
0.051500 0.063250 0.033000
0.057000 0.060000 0.032750
0.060250 0.057500 0.033000
0.060250 0.057500 0.033500
0.059750 0.054750 0.024250
0.059500 0.058000 0.034000
0.060250 0.057250 0.033750
0.061250 0.054750 0.031750
0.061750 0.058000 0.033750
0.060500 0.056750 0.034000
0.060500 0.056250 0.034000
0.055250 0.061500 0.034250
0.054750 0.061750 0.034250
0.059750 0.055500 0.024500
0.051250 0.063500 0.034250
0.051500 0.063250 0.034500
0.052500 0.063000 0.034250
0.050250 0.064000 0.034250
0.053000 0.063000 0.034250
0.055000 0.062250 0.034750
0.053500 0.062500 0.034250
0.050000 0.064000 0.034500
0.062250 0.058500 0.034250
0.049500 0.064250 0.034750
0.047250 0.064500 0.032250
0.049000 0.064000 0.034750
0.062250 0.056000 0.024000
0.048000 0.064000 0.034750
0.047250 0.064750 0.034750
0.061750 0.061000 0.033000
0.046500 0.064750 0.034750
0.045750 0.065000 0.034250
0.044250 0.065000 0.032250
0.061250 0.061250 0.034500
0.043750 0.065250 0.032500
0.045250 0.065000 0.034250
0.061000 0.062250 0.033000
0.061250 0.062250 0.033000
0.061250 0.062250 0.034500
0.059500 0.059500 0.019750
0.045500 0.064750 0.035000
0.061000 0.062500 0.033000
0.060250 0.062750 0.034750
0.059250 0.060250 0.019500
0.045250 0.065000 0.035250
0.059000 0.060500 0.019500
0.058750 0.061250 0.019250
0.043750 0.065250 0.034750
0.048250 0.064500 0.040000
0.048000 0.064750 0.040000
0.044500 0.065500 0.037750
0.057250 0.063000 0.019000
0.044000 0.065250 0.037750
0.060750 0.060750 0.023750
0.043250 0.065250 0.037500
0.060750 0.061000 0.024000
0.060250 0.062000 0.023500
0.059250 0.067250 0.032750
0.044250 0.065000 0.039500
0.061000 0.060250 0.024000
0.043000 0.065000 0.037500
0.043000 0.065250 0.037500
0.042750 0.065250 0.037250
0.043250 0.065500 0.039250
0.042250 0.065250 0.037750
0.055500 0.065500 0.016750
0.059500 0.064000 0.023500
0.054750 0.066250 0.016500
0.041500 0.065000 0.039500
0.041250 0.065500 0.039250
0.054500 0.066500 0.016500
0.059000 0.065000 0.023500
0.053750 0.066750 0.016500
0.035250 0.065000 0.034500
0.034750 0.064750 0.034250
0.034500 0.064750 0.034750
0.058750 0.066000 0.024000
0.058500 0.066000 0.023500
0.031750 0.064250 0.032250
0.034750 0.064750 0.035500
0.030750 0.064000 0.032250
0.053750 0.068500 0.018750
0.035000 0.064750 0.036000
0.039500 0.065000 0.039500
0.035250 0.064750 0.036500
0.037250 0.065250 0.036250
0.035000 0.064750 0.036250
0.053750 0.068750 0.017500
0.052750 0.068500 0.017000
0.035500 0.064750 0.036750
0.031750 0.064250 0.033250
0.029750 0.063750 0.032750
0.053750 0.068750 0.015500
0.057750 0.067000 0.023250
0.059250 0.066500 0.026250
0.033250 0.064750 0.034750
0.029500 0.063750 0.033750
0.036000 0.065500 0.037750
0.057500 0.067750 0.023500
0.032500 0.064500 0.034250
0.035500 0.065750 0.038250
0.027750 0.063500 0.033250
0.059000 0.067250 0.026500
0.028000 0.063250 0.033500
0.058750 0.068000 0.026500
0.058000 0.068750 0.025250
0.057500 0.068750 0.024500
0.058250 0.068750 0.026000
0.052750 0.071500 0.019500
0.058000 0.069000 0.026000
0.054250 0.071500 0.022000
0.057000 0.069500 0.024000
0.031500 0.064250 0.036250
0.054250 0.071750 0.022000
0.057250 0.069750 0.026500
0.057500 0.069750 0.026500
0.054000 0.072000 0.022000
0.052000 0.071250 0.016500
0.031000 0.064250 0.036750
0.025750 0.061750 0.033750
0.025500 0.061750 0.033750
0.056250 0.074250 0.030000
0.056500 0.069000 0.023250
0.056250 0.075750 0.031750
0.056250 0.070250 0.024750
0.053750 0.072500 0.022250
0.032250 0.065000 0.039250
0.023500 0.061000 0.032250
0.056500 0.070000 0.023750
0.057500 0.070750 0.026500
0.057500 0.070500 0.026500
0.031500 0.064250 0.037000
0.051250 0.072250 0.018750
0.030750 0.064250 0.037750
0.050750 0.072250 0.018750
0.055250 0.076500 0.037000
0.050750 0.073000 0.018500
0.050250 0.073000 0.018750
0.055250 0.077250 0.032000
0.055250 0.077250 0.037250
0.052750 0.074000 0.022750
0.019250 0.058250 0.032250
0.056750 0.072000 0.026750
0.050500 0.074000 0.020000
0.050500 0.074000 0.019500
0.051750 0.074750 0.022500
0.019000 0.057750 0.032250
0.050250 0.074500 0.019750
0.050500 0.074250 0.018500
0.050250 0.075000 0.021250
0.049750 0.074750 0.020250
0.050000 0.075000 0.019000
0.049750 0.075000 0.018750
0.050500 0.075250 0.017750
0.051250 0.074500 0.016750
0.048000 0.077250 0.021500
0.049000 0.076500 0.019000
0.053250 0.079250 0.031000
0.047000 0.078000 0.020500
0.051750 0.081000 0.033250
0.045250 0.079250 0.021000
0.049250 0.080000 0.025250
0.044250 0.080500 0.023250
0.048750 0.080250 0.025750
0.045750 0.081000 0.024750
0.050250 0.082750 0.032750
0.045000 0.081250 0.024250
0.050250 0.082750 0.035000
0.046750 0.081250 0.025000
0.046250 0.081250 0.025000
0.045750 0.081500 0.024500
0.046000 0.081250 0.025500
0.043000 0.080500 0.022250
0.046500 0.079750 0.018750
0.042500 0.080250 0.022250
0.042500 0.080250 0.021750
0.045750 0.081500 0.025750
0.049750 0.083500 0.033250
0.043250 0.080500 0.021000
0.043000 0.081500 0.023000
0.043000 0.081500 0.024250
0.043750 0.082000 0.024500
0.042500 0.081000 0.023250
0.035750 0.075000 0.043500
0.049750 0.083500 0.035000
0.042250 0.081000 0.023000
0.049250 0.083750 0.032750
0.045000 0.082750 0.025000
0.045750 0.080250 0.019250
0.049250 0.084000 0.033250
0.045250 0.082750 0.025500
0.046250 0.082500 0.025750
0.043750 0.082750 0.025000
0.034500 0.075000 0.042750
0.043750 0.083000 0.024750
0.049000 0.084000 0.032500
0.041750 0.082250 0.024750
0.051250 0.079500 0.026750
0.045750 0.083000 0.026000
0.036750 0.076500 0.043500
0.048000 0.083750 0.036750
0.048250 0.084000 0.036250
0.044500 0.083250 0.025750
0.044250 0.083250 0.025750
0.045750 0.081750 0.039750
0.048750 0.084250 0.034750
0.048750 0.084500 0.033250
0.042000 0.083000 0.025000
0.042500 0.083500 0.025000
0.047750 0.083000 0.027000
0.048000 0.084250 0.032750
0.048750 0.084000 0.031500
0.034500 0.077250 0.042750
0.034500 0.077000 0.042500
0.047750 0.084250 0.032750
0.034500 0.077250 0.042000
0.033250 0.076250 0.042750
0.047250 0.084250 0.036750
0.048000 0.084500 0.034750
0.047750 0.083250 0.027000
0.017000 0.068250 0.034250
0.034500 0.077750 0.042000
0.034250 0.077500 0.041750
0.017000 0.068750 0.034500
0.016750 0.068250 0.034250
0.018250 0.070000 0.035000
0.035000 0.078000 0.041750
0.034750 0.078000 0.041750
0.046750 0.084000 0.037500
0.048750 0.084000 0.031000
0.018000 0.069500 0.034750
0.045000 0.083750 0.038750
0.044750 0.084250 0.026750
0.039250 0.077750 0.043000
0.045250 0.084250 0.027000
0.044250 0.082750 0.039750
0.045250 0.084250 0.038000
0.024250 0.073500 0.039000
0.048250 0.083250 0.028250
0.033750 0.078250 0.041500
0.036250 0.078500 0.042250
0.043750 0.083000 0.039250
0.046250 0.085000 0.037000
0.035500 0.079000 0.041500
0.032750 0.078000 0.041250
0.045250 0.084500 0.037750
0.026500 0.073500 0.039250
0.032500 0.077750 0.041250
0.043250 0.082750 0.039250
0.046750 0.085250 0.032000
0.048500 0.083500 0.028500
0.032250 0.078000 0.041000
0.039750 0.078000 0.042750
0.025000 0.074250 0.038750
0.046250 0.084750 0.028250
0.046750 0.084500 0.028500
0.042750 0.085250 0.027750
0.043250 0.082250 0.040250
0.043000 0.085250 0.027750
0.046250 0.084750 0.028500
0.044000 0.084750 0.037750
0.043000 0.085750 0.027750
0.027000 0.074500 0.039250
0.042500 0.083000 0.040000
0.046000 0.085750 0.034500
0.018000 0.073500 0.032750
0.017500 0.073000 0.032500
0.042250 0.083000 0.040000
0.025750 0.074750 0.039000
0.023500 0.075500 0.037250
0.046000 0.085250 0.029000
0.042250 0.082250 0.040250
0.042000 0.082500 0.040000
0.042000 0.083500 0.039500
0.048000 0.084250 0.029500
0.029000 0.077500 0.039750
0.041750 0.083250 0.039750
0.046250 0.085250 0.029500
0.048500 0.083500 0.029250
0.041500 0.083250 0.039750
0.041500 0.083750 0.039250
0.026250 0.075500 0.039000
0.017500 0.073500 0.031750
0.042750 0.086500 0.028250
0.042500 0.086500 0.028000
0.029500 0.078250 0.039250
0.037250 0.081250 0.040250
0.041250 0.083750 0.039000
0.022750 0.076250 0.036250
0.045500 0.086000 0.033250
0.043750 0.086750 0.028250
0.017250 0.073250 0.031500
0.016250 0.071750 0.030250
0.020250 0.075000 0.034500
0.031500 0.077750 0.040750
0.038500 0.081250 0.040750
0.018250 0.074250 0.031250
0.017750 0.074250 0.031250
0.016250 0.072000 0.030000
0.039750 0.078500 0.043250
0.028750 0.078500 0.039000
0.038000 0.081750 0.040250
0.041000 0.083750 0.039000
0.041750 0.084750 0.038250
0.042250 0.085000 0.037750
0.026000 0.076000 0.038750
0.044250 0.086500 0.034000
0.044250 0.086500 0.033750
0.019750 0.075250 0.033750
0.029250 0.079000 0.039250
0.028000 0.078250 0.038750
0.043250 0.085250 0.037500
0.031750 0.078000 0.040250
0.023750 0.076750 0.036750
0.023500 0.076750 0.036500
0.023000 0.076750 0.036250
0.022000 0.076250 0.035750
0.020750 0.075250 0.035000
0.041250 0.087250 0.028500
0.040500 0.079000 0.042750
0.034250 0.080750 0.040500
0.034250 0.081000 0.040250
0.035000 0.082000 0.039750
0.040750 0.084000 0.038750
0.023500 0.077000 0.036250
0.043250 0.086000 0.035750
0.043250 0.086250 0.035500
0.018250 0.075250 0.031000
0.018000 0.075000 0.030750
0.046750 0.085250 0.030750
0.038750 0.087500 0.027750
0.038750 0.087250 0.028250
0.035250 0.082250 0.039500
0.040500 0.087750 0.028500
0.040000 0.087500 0.029000
0.019500 0.075750 0.033250
0.040500 0.079250 0.042750
0.029000 0.079500 0.039000
0.026000 0.076750 0.038250
0.018500 0.075750 0.030750
0.016750 0.072750 0.028250
0.040250 0.087500 0.029250
0.038000 0.082500 0.040000
0.044250 0.086500 0.030250
0.035750 0.084750 0.025750
0.020000 0.076250 0.033250
0.016500 0.073000 0.028000
0.016250 0.073000 0.027750
0.027500 0.078750 0.038250
0.036000 0.083000 0.038750
0.034000 0.081750 0.039500
0.034500 0.082250 0.039250
0.032250 0.079250 0.040250
0.025500 0.077250 0.037750
0.042500 0.086750 0.035000
0.042750 0.087000 0.034250
0.043750 0.086750 0.030500
0.036500 0.087500 0.027250
0.037750 0.083000 0.039750
0.042500 0.086000 0.036500
0.019000 0.076750 0.030500
0.018000 0.075000 0.028750
0.043500 0.087000 0.030750
0.017500 0.074000 0.027750
0.019500 0.076500 0.032500
0.026000 0.077750 0.037750
0.042000 0.087000 0.034500
0.039750 0.088000 0.030000
0.037750 0.088000 0.029250
0.019500 0.076750 0.032250
0.035750 0.083750 0.038500
0.019000 0.077000 0.030250
0.019750 0.077000 0.032250
0.026500 0.078000 0.038000
0.020750 0.077000 0.033750
0.033750 0.082750 0.038750
0.041750 0.085750 0.036750
0.018000 0.076250 0.028500
0.018250 0.074750 0.027250
0.037250 0.084000 0.038500
0.041000 0.088000 0.030750
0.018000 0.074500 0.026750
0.041250 0.086000 0.036500
0.024250 0.079500 0.035250
0.018750 0.076500 0.028250
0.018500 0.076250 0.028250
0.034500 0.086250 0.026500
0.026000 0.078750 0.037000
0.040750 0.087000 0.035000
0.041500 0.087500 0.031750
0.033250 0.084750 0.025250
0.018500 0.076750 0.028000
0.040500 0.087000 0.034750
0.044750 0.086500 0.030750
0.034250 0.086250 0.026750
0.035000 0.087750 0.029250
0.026250 0.079000 0.037250
0.040250 0.087000 0.035000
0.019250 0.076750 0.027500
0.025500 0.079250 0.037000
0.019500 0.077500 0.028250
0.030750 0.081250 0.038750
0.040250 0.087500 0.034500
0.039750 0.086750 0.035500
0.024500 0.080250 0.035000
0.018500 0.074750 0.026750
0.032000 0.084250 0.025000
0.021250 0.078000 0.033250
0.019750 0.077500 0.027750
0.034250 0.087000 0.027750
0.020000 0.077250 0.027000
0.019000 0.075000 0.026500
0.039750 0.087500 0.034250
0.023750 0.080000 0.033750
0.020000 0.077000 0.026500
0.032750 0.085750 0.026500
0.020000 0.076000 0.026000
0.040000 0.085500 0.036750
0.020000 0.077000 0.026000
0.023250 0.080250 0.033500
0.024750 0.081000 0.034500
0.033500 0.087250 0.028250
0.031000 0.084500 0.025500
0.020250 0.079000 0.028250
0.020250 0.076500 0.025500
0.031250 0.082000 0.037750
0.038250 0.086750 0.035500
0.039500 0.087750 0.033000
0.033250 0.087000 0.028250
0.021000 0.078500 0.027250
0.020500 0.078750 0.027500
0.020750 0.076750 0.025250
0.025750 0.080500 0.036250
0.031500 0.086000 0.026750
0.033000 0.087250 0.029000
0.031250 0.086000 0.026750
0.030000 0.084500 0.025750
0.033250 0.087500 0.029250
0.024750 0.082250 0.033250
0.032250 0.082750 0.037750
0.031500 0.083000 0.037500
0.031000 0.086000 0.027250
0.030250 0.085500 0.027250
0.030000 0.085250 0.026750
0.029750 0.084750 0.026500
0.024250 0.082750 0.031250
0.025750 0.082750 0.033500
0.031250 0.086750 0.028750
0.029000 0.084750 0.026750
0.032500 0.083500 0.037250
0.030500 0.083250 0.036750
0.025750 0.083250 0.033000
0.031000 0.083750 0.036750
0.029000 0.085250 0.027500
0.028250 0.084750 0.026750
0.028250 0.085000 0.027750
0.028000 0.084500 0.027250
0.026000 0.084000 0.031000
0.030250 0.086500 0.029750
0.029750 0.086250 0.029500
0.028000 0.085250 0.028500
0.027750 0.085000 0.028250
0.027750 0.085000 0.028500
0.028000 0.085500 0.028500
0.028250 0.086000 0.029250
0.028250 0.085750 0.029250
0.031000 0.087000 0.030000
0.025250 0.084000 0.028250
0.025000 0.083250 0.028500
0.023250 0.078750 0.024250
0.023000 0.078500 0.024250
0.022500 0.078000 0.024500
0.022250 0.078000 0.024750
