635
0.038738 0.058859 0.014908
0.038985 0.059601 0.014165
0.039232 0.058116 0.015650
0.040223 0.059354 0.014412
0.039232 0.057869 0.016640
0.037253 0.059106 0.014660
0.038738 0.057869 0.017382
0.040223 0.057869 0.017630
0.038738 0.058116 0.017878
0.037748 0.057621 0.018867
0.040470 0.057621 0.019610
0.037995 0.057374 0.019858
0.040717 0.057374 0.020105
0.041708 0.056879 0.020600
0.037005 0.057126 0.020105
0.037748 0.056631 0.020352
0.033787 0.056384 0.018620
0.036263 0.056879 0.020352
0.038738 0.057126 0.021095
0.033787 0.055889 0.019610
0.042202 0.056384 0.021837
0.040965 0.056384 0.021837
0.040470 0.056136 0.021837
0.036757 0.056384 0.021590
0.033540 0.055394 0.020105
0.034530 0.055889 0.021095
0.035025 0.055889 0.021095
0.036510 0.055889 0.022333
0.038985 0.056384 0.022580
0.041460 0.055641 0.022828
0.032302 0.055641 0.019363
0.043440 0.054899 0.023322
0.038490 0.055641 0.022828
0.042450 0.054899 0.023817
0.033293 0.055146 0.022333
0.035520 0.055641 0.023322
0.044430 0.054156 0.023817
0.040717 0.055146 0.023817
0.031313 0.054651 0.020105
0.037748 0.055889 0.023322
0.033540 0.054156 0.022828
0.045172 0.053414 0.024065
0.040717 0.054651 0.024807
0.043193 0.053661 0.025302
0.037748 0.055394 0.024313
0.035272 0.054404 0.024560
0.046163 0.052424 0.024807
0.034283 0.054404 0.024313
0.033293 0.053909 0.024313
0.045915 0.051929 0.026045
0.031313 0.053166 0.023817
0.029827 0.053414 0.021095
0.043687 0.053661 0.026787
0.035520 0.053909 0.026292
0.031808 0.052919 0.025302
0.044925 0.052919 0.027283
0.037748 0.054651 0.025798
0.029333 0.052424 0.021590
0.029085 0.051929 0.022085
0.040470 0.054404 0.027283
0.031313 0.052176 0.025550
0.047400 0.049949 0.025055
0.045915 0.052176 0.028025
0.047648 0.050196 0.025550
0.035768 0.053909 0.027035
0.044925 0.052671 0.028520
0.038985 0.054651 0.027283
0.030818 0.052176 0.025798
0.047895 0.049206 0.024065
0.037748 0.054404 0.026787
0.047895 0.050196 0.026787
0.028837 0.051434 0.023322
0.047400 0.048711 0.023322
0.028342 0.051929 0.022085
0.043935 0.052671 0.028768
0.031313 0.052176 0.027035
0.046905 0.051186 0.028768
0.035025 0.053414 0.028025
0.039727 0.054156 0.028025
0.037253 0.053909 0.027530
0.029333 0.051186 0.026045
0.048390 0.049454 0.027530
0.028095 0.050939 0.022580
0.030322 0.051434 0.027035
0.048142 0.047474 0.023075
0.047400 0.045246 0.021343
0.034035 0.052671 0.028520
0.047648 0.050691 0.029510
0.031560 0.052176 0.028025
0.030818 0.051929 0.028025
0.048142 0.050196 0.030005
0.037995 0.053909 0.028768
0.039727 0.053661 0.029015
0.048638 0.046731 0.024313
0.032302 0.052424 0.028272
0.048390 0.045246 0.022085
0.048885 0.048711 0.028025
0.044182 0.052919 0.030748
0.027352 0.050444 0.024313
0.048142 0.046236 0.024313
0.032550 0.052424 0.029015
0.047895 0.044256 0.020352
0.034778 0.052919 0.029757
0.048885 0.044751 0.022333
0.048142 0.043761 0.020105
0.041955 0.053909 0.030253
0.028095 0.049949 0.028025
0.049627 0.048711 0.030005
0.049380 0.048216 0.029510
0.031065 0.051929 0.029510
0.048390 0.043761 0.022333
0.041708 0.053909 0.030748
0.049133 0.048959 0.031242
0.027352 0.049949 0.025798
0.049380 0.047474 0.027778
0.047895 0.042276 0.019363
0.038738 0.053909 0.030500
0.031313 0.052176 0.030005
0.049380 0.045494 0.024807
0.026857 0.049454 0.024560
0.044182 0.053414 0.032232
0.039232 0.053909 0.030995
0.049875 0.046484 0.028025
0.049133 0.043514 0.022828
0.042202 0.053909 0.031738
0.027105 0.049454 0.026540
0.049627 0.047226 0.028768
0.042945 0.053661 0.032480
0.028590 0.050939 0.029757
0.049627 0.047969 0.032480
0.049133 0.042771 0.023570
0.025620 0.048216 0.023570
0.045172 0.052424 0.033470
0.044925 0.052919 0.033223
0.040717 0.054156 0.032480
0.049875 0.047474 0.032975
0.049627 0.045741 0.028768
0.049133 0.043761 0.025798
0.026610 0.049206 0.028272
0.034283 0.053414 0.031985
0.033540 0.053166 0.031985
0.029085 0.051434 0.030500
0.026363 0.048959 0.027283
0.049627 0.043514 0.025550
0.026857 0.050691 0.030748
0.050370 0.046236 0.032975
0.031560 0.052671 0.031985
0.038985 0.053909 0.032975
0.049875 0.041534 0.024560
0.041955 0.053909 0.033965
0.025868 0.048711 0.029510
0.050370 0.044256 0.027778
0.046905 0.051929 0.034460
0.025125 0.046979 0.024560
0.048885 0.049949 0.035202
0.050370 0.045989 0.033965
0.025620 0.048464 0.028768
0.047400 0.051434 0.033965
0.025372 0.049206 0.030748
0.033540 0.053414 0.032727
0.025125 0.047721 0.027283
0.046905 0.051681 0.034955
0.049627 0.039059 0.023075
0.043440 0.053414 0.034708
0.050370 0.046979 0.035202
0.050123 0.047474 0.035202
0.050618 0.045246 0.031738
0.050370 0.044999 0.032727
0.050618 0.043019 0.027283
0.049627 0.039554 0.023570
0.050618 0.044999 0.033965
0.050618 0.044751 0.030500
0.039480 0.054156 0.034460
0.050618 0.045494 0.035450
0.041955 0.053909 0.035202
0.024630 0.048711 0.031738
0.038490 0.054404 0.034460
0.049875 0.047721 0.036193
0.028590 0.051681 0.032727
0.035768 0.053661 0.033223
0.024630 0.047721 0.029510
0.050618 0.042029 0.028025
0.025620 0.049949 0.032480
0.049627 0.037574 0.022085
0.050865 0.045246 0.035945
0.051112 0.043019 0.029757
0.050865 0.044256 0.034708
0.050370 0.039554 0.025798
0.040965 0.054156 0.036193
0.050865 0.044504 0.036440
0.024135 0.047969 0.032232
0.030570 0.052919 0.033223
0.024135 0.045741 0.025798
0.024383 0.045494 0.024560
0.024383 0.046484 0.027283
0.024135 0.044751 0.024065
0.040470 0.053909 0.036687
0.042945 0.053909 0.036440
0.047648 0.050939 0.036687
0.033045 0.053661 0.034955
0.030818 0.053166 0.033717
0.050618 0.046484 0.036935
0.023640 0.046979 0.030005
0.036757 0.054156 0.035202
0.051360 0.040296 0.028272
0.043935 0.053414 0.037183
0.024135 0.048216 0.033717
0.024135 0.044751 0.025302
0.032798 0.053414 0.035202
0.039480 0.054156 0.036440
0.051112 0.044504 0.037430
0.051112 0.040791 0.029757
0.031808 0.053661 0.035202
0.046905 0.052176 0.037430
0.050618 0.046236 0.038172
0.029333 0.052424 0.033965
0.028837 0.052176 0.034212
0.024135 0.047474 0.033965
0.023640 0.046731 0.032727
0.048638 0.050691 0.037430
0.024630 0.043266 0.023322
0.024878 0.049454 0.033965
0.027600 0.051929 0.034212
0.051112 0.042771 0.035450
0.050865 0.036831 0.025798
0.023640 0.044751 0.027035
0.040470 0.054156 0.038172
0.037005 0.054156 0.036687
0.023640 0.046484 0.034212
0.051360 0.037079 0.026045
0.045172 0.052919 0.038420
0.051112 0.043266 0.038915
0.028590 0.052671 0.034460
0.026610 0.051186 0.033223
0.043687 0.053166 0.038668
0.050618 0.038811 0.030253
0.023640 0.044009 0.027035
0.033293 0.053909 0.036687
0.049133 0.036089 0.018620
0.041955 0.053909 0.039163
0.051112 0.041534 0.035945
0.024135 0.042029 0.023570
0.023887 0.045741 0.035450
0.047648 0.051434 0.039657
0.048142 0.050939 0.039410
0.039975 0.053909 0.039163
0.038242 0.054404 0.038420
0.050865 0.041286 0.036687
0.023640 0.042524 0.026292
0.050865 0.045494 0.040895
0.033045 0.054156 0.037430
0.023145 0.044504 0.031738
0.036510 0.053909 0.037678
0.026610 0.051186 0.035450
0.048885 0.050196 0.040153
0.046410 0.052424 0.040153
0.038738 0.054156 0.039163
0.051112 0.040791 0.036935
0.025125 0.050196 0.035450
0.049380 0.034604 0.019858
0.050865 0.040296 0.037925
0.023145 0.042771 0.028025
0.044925 0.053166 0.040400
0.038242 0.054404 0.039657
0.048885 0.049949 0.041390
0.023640 0.041534 0.026540
0.029580 0.053414 0.036193
0.051112 0.039801 0.038420
0.051112 0.040049 0.035945
0.023640 0.043514 0.034212
0.023393 0.043019 0.032727
0.025620 0.050196 0.036935
0.034778 0.054651 0.038668
0.049627 0.048711 0.042380
0.023640 0.040791 0.027283
0.023640 0.041534 0.028520
0.051112 0.043266 0.042133
0.051112 0.039306 0.039163
0.050370 0.036089 0.017630
0.032550 0.054899 0.038668
0.035025 0.054651 0.039163
0.051112 0.038564 0.036687
0.047400 0.051681 0.041638
0.050618 0.046236 0.042627
0.040470 0.053909 0.041885
0.051112 0.042771 0.042627
0.050865 0.038811 0.039410
0.025620 0.049454 0.037678
0.024135 0.039554 0.027035
0.024630 0.039801 0.022828
0.025868 0.039306 0.019858
0.050865 0.035841 0.017135
0.044678 0.052919 0.041885
0.041708 0.053166 0.042133
0.024630 0.046731 0.038172
0.050865 0.038316 0.040400
0.042450 0.053661 0.041885
0.050370 0.040296 0.043123
0.023887 0.041534 0.034212
0.037748 0.054404 0.040895
0.023887 0.040049 0.030005
0.050370 0.035594 0.017630
0.043687 0.053414 0.042627
0.025125 0.047226 0.038420
0.025620 0.048959 0.038172
0.050618 0.036584 0.037183
0.025125 0.038316 0.022828
0.045667 0.052176 0.043123
0.027848 0.052671 0.036935
0.042202 0.053661 0.042627
0.038738 0.054404 0.042133
0.049875 0.038069 0.042627
0.036263 0.054899 0.040153
0.024135 0.038316 0.027778
0.047648 0.051434 0.042875
0.049627 0.047226 0.043865
0.025125 0.048216 0.038172
0.024630 0.041781 0.036440
0.023640 0.041286 0.033717
0.025125 0.045989 0.039410
0.025620 0.048711 0.039163
0.023640 0.040544 0.031490
0.024383 0.043761 0.038668
0.025372 0.045494 0.039657
0.049875 0.039306 0.044112
0.050123 0.038316 0.043617
0.050123 0.037326 0.041885
0.025620 0.037079 0.022828
0.032798 0.054651 0.041142
0.030322 0.054156 0.041638
0.031313 0.054899 0.041142
0.047648 0.051434 0.044360
0.049875 0.037821 0.044112
0.026857 0.051434 0.039163
0.024383 0.037079 0.028520
0.025125 0.043266 0.039163
0.049133 0.048216 0.044112
0.025868 0.047721 0.040400
0.050370 0.036584 0.040400
0.046657 0.051186 0.044855
0.025620 0.044009 0.040153
0.035520 0.054899 0.041638
0.023887 0.040296 0.033470
0.047400 0.050939 0.045102
0.045172 0.052176 0.045102
0.026115 0.047474 0.040895
0.024878 0.040049 0.037183
0.026363 0.049701 0.040153
0.049875 0.032871 0.036440
0.049875 0.034109 0.037183
0.024383 0.040049 0.032727
0.031808 0.054404 0.042380
0.049380 0.048711 0.044855
0.049380 0.036089 0.042627
0.025620 0.046731 0.040895
0.034530 0.055146 0.042380
0.026115 0.037574 0.020600
0.039480 0.054404 0.044608
0.042450 0.053414 0.044855
0.032302 0.054899 0.042627
0.031808 0.054404 0.043123
0.030570 0.053909 0.043617
0.050370 0.043266 0.046093
0.044430 0.052424 0.045597
0.025125 0.035594 0.029510
0.027600 0.051681 0.040400
0.026363 0.048464 0.041390
0.025125 0.035594 0.030500
0.043935 0.052919 0.045845
0.048142 0.050196 0.046093
0.033045 0.054899 0.043370
0.025620 0.038811 0.037430
0.026115 0.045741 0.042133
0.034283 0.054651 0.043370
0.024630 0.038811 0.033965
0.050123 0.043266 0.047330
0.026115 0.042524 0.041638
0.048390 0.035346 0.044112
0.025868 0.038564 0.038420
0.050123 0.042524 0.047082
0.038738 0.054651 0.045845
0.037500 0.054899 0.044608
0.025868 0.040791 0.041142
0.048390 0.035099 0.043617
0.026610 0.045494 0.042380
0.048390 0.027179 0.030005
0.026363 0.035346 0.020848
0.048390 0.025941 0.027778
0.042945 0.053166 0.046093
0.047895 0.025941 0.027283
0.041460 0.053414 0.047330
0.025868 0.038564 0.039163
0.049380 0.035099 0.041142
0.049380 0.031386 0.035945
0.047400 0.050196 0.047082
0.048638 0.034851 0.041142
0.025372 0.037574 0.035945
0.025620 0.034851 0.031985
0.048142 0.025446 0.026540
0.048885 0.030891 0.035945
0.025868 0.034109 0.030748
0.030322 0.052424 0.045350
0.026857 0.047721 0.042875
0.026363 0.034356 0.019858
0.040223 0.053909 0.047825
0.049875 0.043514 0.048567
0.037005 0.055394 0.045845
0.047648 0.035841 0.046835
0.026610 0.043019 0.042875
0.047895 0.033614 0.042627
0.025868 0.037079 0.036687
0.048390 0.029406 0.035202
0.048142 0.028911 0.034955
0.047895 0.026931 0.031985
0.047400 0.026436 0.031242
0.046905 0.024951 0.028272
0.042697 0.052919 0.047330
0.048142 0.048711 0.048072
0.026363 0.039306 0.041142
0.025868 0.034851 0.033223
0.047152 0.027179 0.033965
0.032055 0.053909 0.045845
0.038985 0.054156 0.048072
0.027105 0.040791 0.042875
0.046905 0.034604 0.045597
0.027105 0.043019 0.043617
0.047400 0.031881 0.040648
0.026610 0.034109 0.022580
0.049380 0.042276 0.049310
0.026115 0.036831 0.037430
0.026115 0.033861 0.029510
0.046163 0.024456 0.029015
0.027848 0.033366 0.019363
0.043193 0.052424 0.048072
0.047400 0.030149 0.038915
0.026363 0.033119 0.029510
0.047895 0.038316 0.049063
0.048638 0.048711 0.048815
0.027600 0.040791 0.043617
0.046905 0.033119 0.043617
0.047400 0.031139 0.040153
0.048142 0.029406 0.036440
0.028095 0.049949 0.044360
0.037995 0.055146 0.048072
0.045420 0.024209 0.028768
0.032055 0.052671 0.046587
0.029333 0.051186 0.046093
0.036263 0.054899 0.047330
0.046410 0.035099 0.047578
0.035272 0.055146 0.046587
0.027600 0.048464 0.043617
0.027352 0.036336 0.039657
0.026610 0.034356 0.034460
0.026857 0.032871 0.032232
0.027105 0.032376 0.029757
0.047152 0.038811 0.049557
0.033787 0.054651 0.046587
0.045915 0.034851 0.047578
0.027600 0.042771 0.044855
0.046905 0.028911 0.036687
0.026115 0.034109 0.023817
0.046657 0.028911 0.037183
0.029580 0.049701 0.046835
0.029333 0.049206 0.046587
0.047400 0.039059 0.050052
0.046163 0.032871 0.044855
0.046163 0.030891 0.041638
0.026857 0.034109 0.035450
0.046410 0.022476 0.025550
0.048885 0.048216 0.049805
0.028342 0.039306 0.044360
0.027848 0.038316 0.043617
0.028095 0.040791 0.044855
0.027352 0.046484 0.044112
0.027105 0.035594 0.038172
0.027600 0.032624 0.032975
0.027600 0.031386 0.022333
0.028837 0.048216 0.046587
0.049380 0.044504 0.050052
0.028342 0.048464 0.044608
0.041460 0.052919 0.050795
0.046905 0.037821 0.050052
0.028342 0.038811 0.044112
0.045420 0.033366 0.046835
0.026857 0.032376 0.024313
0.040965 0.053661 0.050795
0.048142 0.041781 0.051290
0.046163 0.050691 0.050548
0.032798 0.053414 0.047825
0.045667 0.035346 0.048815
0.045667 0.029159 0.039657
0.045667 0.028911 0.038668
0.028590 0.036089 0.041638
0.044430 0.033366 0.047082
0.028342 0.039306 0.045350
0.031065 0.050939 0.047825
0.045915 0.049701 0.051042
0.046163 0.037574 0.050300
0.028590 0.047226 0.046340
0.045172 0.035841 0.049557
0.029085 0.037079 0.043123
0.044182 0.024704 0.033717
0.029085 0.046979 0.047082
0.040223 0.053166 0.052033
0.045667 0.036089 0.050052
0.027600 0.034604 0.037430
0.028342 0.030644 0.029510
0.040717 0.052919 0.052280
0.029085 0.039306 0.045845
0.028342 0.031634 0.034460
0.045172 0.027426 0.037925
0.027105 0.034604 0.036440
0.043687 0.023961 0.031490
0.047895 0.042029 0.052033
0.046657 0.049949 0.051537
0.032798 0.052671 0.048815
0.027848 0.034109 0.037925
0.028095 0.034356 0.038420
0.028342 0.030396 0.031490
0.029827 0.039059 0.046093
0.027848 0.030149 0.025550
0.028837 0.046236 0.047330
0.044925 0.036584 0.051042
0.028342 0.029159 0.020600
0.029085 0.031386 0.036193
0.032302 0.051929 0.049310
0.042697 0.051186 0.051537
0.029333 0.045741 0.047825
0.030075 0.037574 0.046093
0.046657 0.039554 0.052280
0.028095 0.045246 0.046587
0.029085 0.028416 0.020848
0.031313 0.050444 0.049805
0.047895 0.046236 0.052775
0.030322 0.047226 0.050052
0.045667 0.037326 0.052527
0.029827 0.044999 0.048567
0.028590 0.044504 0.046587
0.048390 0.045494 0.051537
0.032055 0.049206 0.050052
0.031313 0.048959 0.050052
0.047648 0.045246 0.052527
0.027848 0.043514 0.045350
0.030570 0.036584 0.046093
0.029333 0.027674 0.021343
0.044678 0.037079 0.052527
0.046410 0.040544 0.053518
0.029827 0.030149 0.034955
0.031065 0.045989 0.050548
0.029580 0.033614 0.040648
0.047648 0.041286 0.053518
0.031313 0.034356 0.044112
0.030322 0.031139 0.037925
0.031808 0.047721 0.050052
0.030818 0.044256 0.050300
0.030322 0.043761 0.049805
0.031065 0.035594 0.045597
0.030818 0.043266 0.050300
0.030570 0.028664 0.033965
0.031560 0.032871 0.043370
0.029827 0.027179 0.022580
0.029333 0.027921 0.022828
0.031313 0.043266 0.051042
0.032055 0.035099 0.046340
0.031313 0.029406 0.037183
0.031313 0.030644 0.038915
0.039232 0.024951 0.033470
0.031065 0.042524 0.051042
0.032302 0.048216 0.051537
0.039232 0.024951 0.036687
0.038985 0.024456 0.033965
0.046657 0.042771 0.055003
0.044430 0.049949 0.055003
0.031808 0.043761 0.052280
0.031065 0.027674 0.027283
0.030818 0.027179 0.026787
0.046163 0.042276 0.055003
0.032302 0.032376 0.043865
0.030570 0.027921 0.028025
0.030322 0.041534 0.049310
0.030570 0.026436 0.023322
0.031560 0.041039 0.051785
0.030075 0.040049 0.048320
0.033540 0.033119 0.045845
0.032550 0.029654 0.039410
0.032550 0.028911 0.038668
0.031808 0.047226 0.051785
0.031065 0.041039 0.049557
0.032798 0.034356 0.047578
0.033045 0.032129 0.043865
0.032550 0.045989 0.052527
0.033045 0.031386 0.043123
0.030818 0.028169 0.028768
0.031313 0.040296 0.051290
0.032798 0.028416 0.037925
0.032550 0.040296 0.052280
0.030570 0.038811 0.048320
0.033787 0.031386 0.044112
0.032302 0.024704 0.023570
0.032055 0.046236 0.053023
0.032550 0.041781 0.054012
0.031065 0.038316 0.048815
0.034530 0.034109 0.048815
0.034778 0.033119 0.047825
0.034283 0.031634 0.044608
0.034530 0.028416 0.040153
0.032798 0.039306 0.052527
0.032302 0.043019 0.054012
0.032798 0.040296 0.053765
0.034778 0.033861 0.049310
0.034035 0.029406 0.041142
0.031808 0.037821 0.049557
0.033540 0.039306 0.053765
0.036757 0.032624 0.048072
0.036263 0.031634 0.046340
0.034283 0.029654 0.041638
0.032798 0.038069 0.052775
0.032302 0.037326 0.050052
0.036757 0.027674 0.040648
0.035768 0.028416 0.041885
0.035025 0.029901 0.042627
0.037005 0.027921 0.041142
0.036757 0.030644 0.045597
0.034530 0.023219 0.023817
0.033045 0.036831 0.050795
0.033787 0.042276 0.055745
0.036263 0.029159 0.042380
0.033293 0.036831 0.051290
0.034283 0.040544 0.055497
0.033787 0.037821 0.053023
0.036015 0.030149 0.043617
0.035272 0.039801 0.056488
0.034283 0.036584 0.053023
0.037748 0.024209 0.030748
0.035272 0.034604 0.051290
