1777
0.047554 0.042000 0.052000
0.047059 0.040750 0.052000
0.047017 0.040500 0.052000
0.047000 0.040451 0.052000
0.047000 0.040250 0.051799
0.048000 0.042500 0.051529
0.047580 0.042250 0.051750
0.047000 0.040201 0.051750
0.046858 0.040000 0.051750
0.048010 0.042500 0.051500
0.048000 0.042470 0.051500
0.047000 0.039750 0.051299
0.046000 0.049500 0.051588
0.046500 0.049250 0.051335
0.046250 0.049353 0.051500
0.046062 0.049500 0.051500
0.046000 0.049523 0.051500
0.045750 0.049567 0.051500
0.045322 0.050000 0.051500
0.045250 0.050027 0.051500
0.046527 0.049250 0.051250
0.042549 0.051250 0.051000
0.042750 0.051082 0.050750
0.028646 0.046500 0.045750
0.028500 0.046500 0.045554
0.028480 0.046500 0.045500
0.028453 0.046250 0.045500
0.028447 0.046000 0.045500
0.028428 0.046000 0.045250
0.028428 0.045750 0.045250
0.028250 0.045750 0.045049
0.028250 0.045500 0.045049
0.028136 0.045500 0.045000
0.045750 0.038000 0.051399
0.045750 0.037949 0.051250
0.045566 0.037750 0.051250
0.045500 0.037558 0.051250
0.045443 0.037500 0.051250
0.045500 0.037500 0.051201
0.045500 0.037329 0.051000
0.045389 0.037250 0.051000
0.045500 0.037250 0.050888
0.045500 0.037113 0.050750
0.045387 0.037000 0.050750
0.045500 0.037000 0.050667
0.045250 0.036950 0.050750
0.045250 0.036750 0.050550
0.045500 0.036833 0.050500
0.045387 0.036750 0.050500
0.045500 0.036750 0.050386
0.045549 0.036750 0.050250
0.045500 0.036614 0.050250
0.045386 0.036500 0.050250
0.045500 0.036500 0.050165
0.033750 0.053000 0.048779
0.033750 0.053010 0.048750
0.033726 0.053000 0.048750
0.033500 0.052810 0.048750
0.033473 0.052750 0.048750
0.033250 0.052528 0.048750
0.033185 0.052500 0.048750
0.034250 0.053500 0.048356
0.034103 0.053250 0.048500
0.034000 0.053192 0.048500
0.033000 0.052373 0.048500
0.032950 0.052250 0.048500
0.034250 0.053535 0.048250
0.034451 0.053750 0.048000
0.034500 0.053912 0.047750
0.029750 0.038250 0.045047
0.029750 0.038113 0.045000
0.029750 0.038000 0.044887
0.029642 0.038000 0.044750
0.029750 0.037954 0.044750
0.029750 0.037750 0.044547
0.029642 0.037750 0.044500
0.029500 0.037500 0.044049
0.029500 0.037451 0.044000
0.045050 0.036250 0.050250
0.045000 0.036113 0.050250
0.044887 0.036000 0.050250
0.045000 0.036000 0.050167
0.044750 0.035950 0.050250
0.044750 0.035750 0.050050
0.044500 0.035500 0.050167
0.044750 0.035613 0.050000
0.044667 0.035500 0.050000
0.044500 0.035336 0.050000
0.044374 0.035250 0.050000
0.044500 0.035250 0.049874
0.044250 0.035000 0.049799
0.044544 0.035250 0.049750
0.044500 0.035146 0.049750
0.044298 0.035000 0.049750
0.044500 0.035000 0.049547
0.044250 0.034983 0.049750
0.044250 0.034942 0.049500
0.044250 0.034922 0.049250
0.044052 0.034750 0.049250
0.044250 0.034750 0.049052
0.044250 0.034610 0.049000
0.044168 0.034500 0.049000
0.044250 0.034500 0.048888
0.044388 0.034500 0.048750
0.044500 0.034500 0.048668
0.044250 0.034450 0.048750
0.029642 0.036750 0.043500
0.029808 0.036000 0.043000
0.029750 0.035750 0.042546
0.029750 0.035613 0.042500
0.029643 0.035500 0.042250
0.029500 0.035500 0.042049
0.029483 0.035500 0.042000
0.029500 0.035451 0.042000
0.029441 0.035500 0.041750
0.029750 0.037613 0.044500
0.029750 0.037500 0.044388
0.029642 0.037500 0.044250
0.029750 0.037454 0.044250
0.029750 0.037250 0.044047
0.029642 0.037250 0.044000
0.029500 0.037250 0.043799
0.029483 0.037250 0.043750
0.029500 0.037201 0.043750
0.029420 0.041250 0.046250
0.029433 0.041000 0.046250
0.029447 0.040750 0.046250
0.029442 0.040250 0.046000
0.029750 0.039250 0.046028
0.029594 0.039750 0.046000
0.029638 0.039500 0.046000
0.029688 0.039250 0.046000
0.029750 0.039154 0.046000
0.029750 0.039000 0.045878
0.029500 0.039921 0.046000
0.029500 0.039750 0.045871
0.029922 0.038750 0.045750
0.029648 0.039000 0.045750
0.029750 0.038955 0.045750
0.029750 0.038750 0.045546
0.029808 0.038500 0.045500
0.029941 0.038250 0.045500
0.029750 0.038613 0.045500
0.029750 0.038500 0.045387
0.029922 0.038250 0.045250
0.029808 0.038000 0.045000
0.029483 0.035250 0.041750
0.029441 0.035250 0.041500
0.029422 0.035250 0.041250
0.029442 0.035000 0.041250
0.029310 0.035000 0.041000
0.029250 0.035000 0.040886
0.029250 0.034954 0.040750
0.029250 0.034750 0.040544
0.029149 0.034750 0.040500
0.029000 0.034750 0.040279
0.028990 0.034750 0.040250
0.029000 0.034727 0.040250
0.028956 0.034750 0.040000
0.028443 0.035000 0.039250
0.028491 0.034750 0.039250
0.028500 0.034728 0.039250
0.028459 0.034750 0.039000
0.028500 0.034648 0.039000
0.028588 0.034500 0.038750
0.028446 0.034750 0.038750
0.028500 0.034602 0.038750
0.028500 0.034500 0.038589
0.028477 0.034500 0.038500
0.028500 0.034436 0.038500
0.028441 0.034500 0.038250
0.028308 0.034500 0.038000
0.028250 0.034500 0.037888
0.028250 0.034454 0.037750
0.028000 0.034453 0.037500
0.027943 0.034500 0.037250
0.027750 0.034621 0.037000
0.029000 0.032556 0.036250
0.029000 0.032500 0.036200
0.029118 0.032250 0.036000
0.029126 0.032000 0.035500
0.029000 0.031837 0.035000
0.029000 0.031750 0.034840
0.028972 0.031750 0.034750
0.045250 0.029750 0.041043
0.045000 0.029500 0.041054
0.045051 0.029500 0.041000
0.045000 0.029482 0.041000
0.044750 0.029420 0.040750
0.044568 0.029250 0.040750
0.044500 0.029056 0.040750
0.044500 0.029000 0.040701
0.044500 0.028833 0.040500
0.044375 0.028750 0.040500
0.044500 0.028750 0.040375
0.044500 0.028646 0.040250
0.044500 0.028500 0.040049
0.044548 0.028500 0.040000
0.044500 0.028483 0.040000
0.044500 0.028442 0.039750
0.044250 0.028421 0.039750
0.044500 0.028304 0.039500
0.044401 0.028250 0.039500
0.044500 0.028250 0.039401
0.044552 0.028250 0.039250
0.044500 0.028109 0.039250
0.044750 0.028109 0.039000
0.044668 0.028000 0.039000
0.044750 0.028000 0.038887
0.045000 0.028111 0.038750
0.044887 0.028000 0.038750
0.045000 0.028000 0.038665
0.044750 0.027750 0.038543
0.045000 0.027843 0.038500
0.044866 0.027750 0.038500
0.044750 0.027650 0.038500
0.044750 0.027500 0.038278
0.044773 0.027500 0.038250
0.044750 0.027491 0.038250
0.044860 0.027500 0.038000
0.044750 0.027456 0.038000
0.044750 0.027434 0.037750
0.044750 0.027250 0.037544
0.044868 0.027250 0.037500
0.045000 0.027250 0.037336
0.044750 0.027149 0.037500
0.045027 0.027250 0.037250
0.045000 0.027189 0.037250
0.027500 0.034728 0.036750
0.027500 0.034648 0.036500
0.027500 0.034602 0.036250
0.027433 0.034750 0.036000
0.028933 0.031750 0.034000
0.028920 0.031750 0.033750
0.028750 0.031621 0.033500
0.028452 0.031750 0.032750
0.044860 0.027000 0.037000
0.044750 0.026956 0.037000
0.044500 0.026810 0.037000
0.044387 0.026750 0.037000
0.044500 0.026750 0.036886
0.044250 0.026500 0.036799
0.044299 0.026500 0.036750
0.044250 0.026483 0.036750
0.044000 0.026308 0.036500
0.043887 0.026250 0.036500
0.044000 0.026250 0.036388
0.044046 0.026250 0.036250
0.044000 0.026142 0.036250
0.043798 0.026000 0.036250
0.044000 0.026000 0.036049
0.044000 0.025983 0.036000
0.043750 0.025942 0.036000
0.043750 0.025922 0.035750
0.043750 0.025750 0.035546
0.044000 0.025808 0.035500
0.043886 0.025750 0.035500
0.044000 0.025750 0.035386
0.044046 0.025750 0.035250
0.044000 0.025645 0.035250
0.044000 0.025500 0.035030
0.044029 0.025500 0.035000
0.028587 0.031500 0.032250
0.028750 0.031436 0.032250
0.028750 0.031250 0.032044
0.028445 0.031750 0.032250
0.028500 0.031598 0.032250
0.028500 0.031500 0.032080
0.028132 0.032000 0.032250
0.028250 0.031950 0.032250
0.028839 0.031000 0.032000
0.028649 0.031250 0.032000
0.028750 0.031132 0.032000
0.028750 0.031000 0.031832
0.028972 0.030750 0.031750
0.028694 0.031000 0.031750
0.028750 0.030974 0.031750
0.028954 0.030750 0.031500
0.029000 0.030641 0.031500
0.028950 0.030750 0.031250
0.029000 0.030631 0.031250
0.029129 0.030500 0.031000
0.028950 0.030750 0.031000
0.029000 0.030629 0.031000
0.029129 0.030500 0.030750
0.029000 0.030629 0.030750
0.029129 0.030500 0.030500
0.029000 0.030629 0.030500
0.029000 0.030629 0.030250
0.029000 0.030629 0.030000
0.028950 0.030750 0.029750
0.044000 0.025490 0.035000
0.043750 0.025443 0.034750
0.043500 0.025306 0.034500
0.043500 0.025250 0.034387
0.043250 0.024947 0.033750
0.043250 0.024943 0.033500
0.043250 0.024939 0.033250
0.043500 0.024930 0.032750
0.029129 0.030500 0.030250
0.029000 0.030629 0.029750
0.028949 0.030750 0.029500
0.043500 0.024645 0.032250
0.028435 0.030750 0.025500
0.028136 0.031000 0.025500
0.028250 0.030951 0.025500
0.027927 0.031750 0.025500
0.027943 0.031500 0.025500
0.027970 0.031250 0.025500
0.028000 0.031171 0.025500
0.027623 0.032000 0.025500
0.027750 0.031947 0.025500
0.027449 0.032250 0.025500
0.027500 0.032125 0.025500
0.028430 0.030750 0.025250
0.028453 0.030500 0.025250
0.027250 0.032452 0.025250
0.028447 0.030500 0.025000
0.028476 0.030250 0.025000
0.028500 0.030187 0.025000
0.028472 0.030250 0.024750
0.028500 0.030175 0.024750
0.028637 0.030000 0.024500
0.028471 0.030250 0.024500
0.028500 0.030173 0.024500
0.028637 0.030000 0.024250
0.028500 0.030173 0.024250
0.028636 0.030000 0.024000
0.028750 0.029951 0.024000
0.028636 0.030000 0.023750
0.028636 0.030000 0.023500
0.028500 0.030173 0.023250
0.028471 0.030250 0.023000
0.028636 0.030000 0.020750
0.028750 0.029951 0.020750
0.028928 0.029750 0.020500
0.028945 0.029500 0.020250
0.028945 0.029500 0.020000
0.028971 0.029250 0.019750
0.029000 0.029173 0.019750
0.028971 0.029250 0.019500
0.029000 0.029174 0.019500
0.028972 0.029250 0.019250
0.029000 0.029176 0.019250
0.028977 0.029250 0.019000
0.029000 0.029188 0.019000
0.028998 0.029250 0.018750
0.029000 0.029245 0.018750
0.029000 0.029250 0.018744
0.028985 0.029500 0.018500
0.029000 0.029458 0.018500
0.029000 0.029500 0.018442
0.029095 0.029500 0.018250
0.029000 0.029639 0.018250
0.028970 0.029750 0.018000
0.029000 0.029667 0.018000
0.028948 0.030000 0.017750
0.032500 0.051750 0.048779
0.032750 0.052027 0.048750
0.032690 0.052000 0.048750
0.032500 0.051774 0.048750
0.032490 0.051750 0.048750
0.032250 0.051250 0.048552
0.032307 0.051500 0.048500
0.032250 0.051400 0.048500
0.032109 0.051250 0.048500
0.032000 0.051168 0.048500
0.032000 0.051250 0.048387
0.031750 0.051000 0.048373
0.031250 0.049500 0.048868
0.031000 0.049250 0.048772
0.031000 0.049000 0.048852
0.031490 0.050250 0.048750
0.031456 0.050000 0.048750
0.031434 0.049750 0.048750
0.031250 0.049543 0.048750
0.031000 0.049277 0.048750
0.030991 0.049250 0.048750
0.030959 0.049000 0.048750
0.030946 0.048750 0.048750
0.030750 0.048750 0.048529
0.030750 0.048500 0.048548
0.030688 0.048750 0.048500
0.044250 0.050500 0.051299
0.043500 0.050750 0.051387
0.043250 0.051000 0.051283
0.044500 0.050358 0.051250
0.044299 0.050500 0.051250
0.044500 0.050500 0.051049
0.044250 0.050517 0.051250
0.044000 0.050558 0.051250
0.043750 0.050578 0.051250
0.043546 0.050750 0.051250
0.043500 0.050855 0.051250
0.043283 0.051000 0.051250
0.043250 0.051011 0.051250
0.043000 0.051058 0.051000
0.047000 0.048500 0.051588
0.046750 0.048750 0.051544
0.047362 0.048000 0.051500
0.047023 0.048500 0.051500
0.047067 0.048250 0.051500
0.047250 0.048048 0.051500
0.047000 0.048562 0.051500
0.046853 0.048750 0.051500
0.046750 0.048869 0.051500
0.046750 0.049000 0.051335
0.047540 0.047750 0.051250
0.047500 0.047871 0.051250
0.047406 0.048000 0.051250
0.047250 0.048063 0.051250
0.047750 0.047388 0.051000
0.047693 0.047500 0.051000
0.047750 0.047500 0.050888
0.030500 0.047750 0.048757
0.030500 0.047500 0.048816
0.030750 0.048045 0.048750
0.030750 0.048250 0.048563
0.030647 0.048000 0.048750
0.030500 0.047759 0.048750
0.030497 0.047750 0.048750
0.030475 0.047500 0.048750
0.030445 0.047500 0.048500
0.030435 0.047250 0.048500
0.030314 0.047000 0.048500
0.030250 0.046844 0.048500
0.030250 0.047000 0.048379
0.030000 0.046750 0.048257
0.030250 0.047045 0.048250
0.030146 0.047000 0.048250
0.030000 0.046759 0.048250
0.029997 0.046750 0.048250
0.029954 0.046750 0.048000
0.029947 0.046500 0.048000
0.029929 0.046500 0.047750
0.029750 0.046500 0.047550
0.029636 0.046500 0.047500
0.029500 0.046500 0.047329
0.029470 0.046500 0.047250
0.029443 0.046500 0.047000
0.029426 0.046500 0.046750
0.048000 0.043500 0.052041
0.048052 0.044500 0.052000
0.048052 0.044250 0.052000
0.048050 0.044000 0.052000
0.048043 0.043750 0.052000
0.048015 0.043500 0.052000
0.048000 0.043444 0.052000
0.048000 0.043250 0.051858
0.048000 0.043000 0.051819
0.048057 0.045000 0.051750
0.048048 0.043500 0.051750
0.048035 0.043250 0.051750
0.048025 0.043000 0.051750
0.048052 0.043000 0.051500
0.048043 0.042750 0.051500
0.048057 0.042750 0.051250
0.048069 0.042750 0.051000
0.028934 0.046750 0.046000
0.028814 0.046500 0.046000
0.028750 0.046500 0.045879
0.028750 0.046545 0.045750
0.046517 0.039250 0.051750
0.046500 0.039202 0.051750
0.046354 0.039000 0.051750
0.046250 0.038956 0.051750
0.046050 0.038750 0.051750
0.046000 0.038613 0.051750
0.046000 0.038500 0.051668
0.045750 0.038250 0.051552
0.046750 0.039613 0.051500
0.046692 0.039500 0.051500
0.046000 0.038332 0.051500
0.045891 0.038250 0.051500
0.045750 0.038100 0.051500
0.040750 0.052500 0.052833
0.040500 0.052750 0.052832
0.040250 0.053000 0.052756
0.040808 0.052500 0.052750
0.040526 0.052750 0.052750
0.040750 0.052526 0.052750
0.040255 0.053000 0.052750
0.040500 0.052806 0.052750
0.040250 0.053002 0.052750
0.040000 0.053043 0.052750
0.039750 0.053057 0.052750
0.039500 0.053067 0.052750
0.039250 0.053250 0.052529
0.041039 0.052250 0.052500
0.041000 0.052346 0.052500
0.039347 0.053250 0.052500
0.039250 0.053312 0.052500
0.047250 0.041500 0.052379
0.047000 0.040750 0.052299
0.047526 0.042000 0.052250
0.047000 0.040701 0.052250
0.046858 0.040500 0.052250
0.046750 0.040250 0.052047
0.047566 0.042250 0.052000
0.046858 0.040250 0.052000
0.046750 0.040113 0.052000
0.046750 0.040000 0.051888
0.047852 0.042500 0.051750
0.047750 0.042456 0.051750
0.046750 0.039954 0.051750
0.046750 0.039750 0.051547
0.046858 0.039750 0.051500
0.029250 0.046500 0.046553
0.029122 0.046500 0.046500
0.029000 0.046500 0.046365
0.028955 0.046500 0.046250
0.045500 0.049750 0.051846
0.045250 0.050000 0.051757
0.046064 0.049250 0.051750
0.046250 0.049250 0.051544
0.046000 0.049411 0.051750
0.045898 0.049500 0.051750
0.045528 0.049750 0.051750
0.045750 0.049554 0.051750
0.045256 0.050000 0.051750
0.045500 0.049812 0.051750
0.045250 0.050002 0.051750
0.046500 0.049161 0.051500
0.046369 0.049250 0.051500
0.045000 0.050055 0.051500
0.044750 0.050081 0.051250
0.042750 0.051074 0.051000
0.028750 0.046345 0.046000
0.028689 0.046250 0.046000
0.028500 0.046250 0.045757
0.028500 0.046000 0.045813
0.028500 0.045750 0.045825
0.028500 0.046259 0.045750
0.028497 0.046250 0.045750
0.028476 0.046000 0.045750
0.028472 0.045750 0.045750
0.028445 0.045750 0.045500
0.028445 0.045500 0.045500
0.028428 0.045500 0.045250
0.028428 0.045250 0.045250
0.028250 0.045250 0.045049
0.028136 0.045250 0.045000
0.028000 0.045250 0.044827
0.027971 0.045250 0.044750
0.045693 0.038000 0.051500
0.045544 0.037750 0.051500
0.045500 0.037639 0.051500
0.045370 0.037500 0.051500
0.045250 0.037433 0.051250
0.045250 0.037250 0.051051
0.045250 0.037110 0.051000
0.045171 0.037000 0.051000
0.045250 0.037000 0.050888
0.045050 0.036750 0.050750
0.045250 0.036613 0.050500
0.045167 0.036500 0.050500
0.045250 0.036500 0.050387
0.045250 0.036450 0.050250
0.031836 0.051000 0.048500
0.033500 0.052750 0.048834
0.033250 0.052500 0.048839
0.034250 0.053250 0.048551
0.034000 0.053058 0.048750
0.033000 0.052314 0.048750
0.032972 0.052250 0.048750
0.034250 0.053385 0.048500
0.029642 0.037000 0.043750
0.029750 0.036954 0.043750
0.029750 0.036750 0.043547
0.029808 0.036500 0.043500
0.029941 0.036250 0.043500
0.029750 0.036612 0.043500
0.029750 0.036500 0.043388
0.029922 0.036250 0.043250
0.029941 0.036000 0.043250
0.029983 0.035750 0.043250
0.029941 0.035750 0.043000
0.029922 0.035750 0.042750
0.029943 0.035500 0.042750
0.029810 0.035500 0.042500
0.029750 0.035500 0.042386
0.029750 0.035454 0.042250
0.029750 0.035250 0.042045
0.029646 0.035250 0.042000
0.029500 0.035250 0.041799
0.029500 0.035201 0.041750
0.029808 0.037500 0.044500
0.029588 0.040750 0.046500
0.029477 0.041000 0.046500
0.029500 0.040912 0.046500
0.029500 0.040750 0.046398
0.029500 0.040500 0.046352
0.029500 0.040250 0.046273
0.029250 0.041500 0.046379
0.029644 0.040000 0.046250
0.029459 0.040500 0.046250
0.029491 0.040250 0.046250
0.029500 0.040222 0.046250
0.029500 0.040000 0.046059
0.029479 0.040000 0.046000
0.029750 0.039750 0.046063
0.029750 0.039500 0.046048
0.029815 0.039000 0.046000
0.029943 0.038750 0.046000
0.029983 0.038500 0.046000
0.030000 0.038250 0.045799
0.029941 0.038500 0.045750
0.029983 0.038250 0.045750
0.030000 0.038201 0.045750
0.029983 0.038000 0.045500
0.029941 0.038000 0.045250
0.029922 0.037750 0.044750
0.029483 0.035000 0.041500
0.029434 0.034750 0.040750
0.028483 0.035000 0.039500
0.028500 0.034750 0.039277
0.028750 0.033000 0.036835
0.028500 0.033250 0.036778
0.028971 0.032750 0.036750
0.029000 0.032685 0.036750
0.028691 0.033000 0.036750
0.028750 0.032973 0.036750
0.028420 0.033750 0.036750
0.028442 0.033500 0.036750
0.028491 0.033250 0.036750
0.028500 0.033228 0.036750
0.028000 0.034000 0.036588
0.029126 0.032500 0.036500
0.029250 0.032449 0.036500
0.028950 0.032750 0.036500
0.029000 0.032627 0.036500
0.029056 0.032500 0.036250
0.029250 0.032432 0.036250
0.029250 0.032250 0.036050
0.029313 0.032000 0.036000
0.029250 0.032111 0.036000
0.029250 0.032000 0.035853
0.029181 0.032000 0.035750
0.029250 0.031969 0.035750
0.029250 0.031949 0.035500
0.029250 0.031932 0.035250
0.029250 0.031750 0.035050
0.029119 0.031750 0.035000
0.029000 0.031686 0.034750
0.028952 0.031750 0.034500
0.044750 0.027950 0.038750
0.044547 0.027500 0.038500
0.044500 0.027484 0.038500
0.044500 0.027443 0.038250
0.044500 0.027310 0.038000
0.044387 0.027250 0.038000
0.044500 0.027250 0.037886
0.044546 0.027250 0.037750
0.044500 0.027143 0.037750
0.044547 0.027000 0.037500
0.044750 0.027000 0.037278
0.044774 0.027000 0.037250
0.044750 0.026991 0.037250
0.027633 0.034500 0.036500
0.027588 0.034500 0.036250
0.029000 0.031635 0.034500
0.029088 0.031500 0.034250
0.028945 0.031750 0.034250
0.029000 0.031599 0.034250
0.029000 0.031500 0.034089
0.028977 0.031500 0.034000
0.029000 0.031438 0.034000
0.028942 0.031500 0.033750
0.028815 0.031500 0.033500
0.028750 0.031500 0.033346
0.028688 0.031500 0.033250
0.028750 0.031472 0.033250
0.028643 0.031500 0.033000
0.044500 0.026943 0.037250
0.044250 0.026750 0.037046
0.044000 0.026500 0.037049
0.044250 0.026642 0.037000
0.044049 0.026500 0.037000
0.044000 0.026483 0.037000
0.044000 0.026441 0.036750
0.043750 0.026422 0.036750
0.043750 0.026250 0.036546
0.043750 0.026143 0.036500
0.043541 0.026000 0.036500
0.043750 0.026000 0.036298
0.043750 0.025983 0.036250
0.043500 0.025944 0.036250
0.043500 0.025813 0.036000
0.043500 0.025750 0.035879
0.043544 0.025750 0.035750
0.043500 0.025649 0.035750
0.043750 0.025645 0.035500
0.043750 0.025500 0.035281
0.043781 0.025500 0.035250
0.043750 0.025489 0.035250
0.043387 0.025250 0.034500
0.043279 0.025000 0.034250
0.043250 0.024990 0.034250
0.043250 0.024957 0.034000
0.043250 0.024930 0.033000
0.043500 0.024806 0.032500
0.029250 0.030450 0.030500
0.029129 0.030500 0.030000
0.029000 0.030629 0.029500
0.043387 0.024750 0.032500
0.043500 0.024750 0.032387
0.043250 0.024500 0.032280
0.043279 0.024500 0.032250
0.043250 0.024490 0.032250
0.043250 0.024457 0.032000
0.043250 0.024447 0.031750
0.043250 0.024445 0.031500
0.043250 0.024444 0.031250
0.043250 0.024444 0.031000
0.043500 0.024444 0.030750
0.043500 0.024444 0.030500
0.043750 0.024445 0.030250
0.044250 0.024470 0.030000
0.028445 0.030750 0.025750
0.028500 0.030598 0.025750
0.028500 0.030500 0.025580
0.028137 0.031000 0.025750
0.028250 0.030951 0.025750
0.027928 0.031750 0.025750
0.027945 0.031500 0.025750
0.027971 0.031250 0.025750
0.028000 0.031172 0.025750
0.027627 0.032000 0.025750
0.027750 0.031949 0.025750
0.028646 0.030250 0.025500
0.028480 0.030500 0.025500
0.028500 0.030445 0.025500
0.028500 0.030250 0.025259
0.028497 0.030250 0.025250
0.028500 0.030243 0.025250
0.028648 0.030000 0.025000
0.028750 0.029955 0.025000
0.028639 0.030000 0.024750
0.028750 0.029952 0.024750
0.028750 0.029951 0.024500
0.028750 0.029951 0.024250
0.028750 0.029951 0.023750
0.028750 0.029951 0.023500
0.028636 0.030000 0.023250
0.028500 0.030173 0.023000
0.028636 0.030000 0.021000
0.028750 0.029951 0.021000
0.028428 0.030750 0.021000
0.028445 0.030500 0.021000
0.028471 0.030250 0.021000
0.028500 0.030173 0.021000
0.028147 0.031000 0.021000
0.028250 0.030954 0.021000
0.028928 0.029750 0.020750
0.028945 0.029500 0.020750
0.028945 0.029500 0.020500
0.028971 0.029250 0.020500
0.028971 0.029250 0.020250
0.029000 0.029173 0.020250
0.029136 0.029000 0.020000
0.028971 0.029250 0.020000
0.029000 0.029173 0.020000
0.029136 0.029000 0.019750
0.029250 0.028951 0.019750
0.029136 0.029000 0.019500
0.029250 0.028951 0.019500
0.029138 0.029000 0.019250
0.029250 0.028951 0.019250
0.029147 0.029000 0.019000
0.029147 0.029250 0.018500
0.032750 0.052000 0.048834
0.032442 0.051500 0.048750
0.031250 0.049250 0.049027
0.031500 0.050250 0.048773
0.031500 0.050000 0.048861
0.031339 0.049500 0.049000
0.031250 0.049335 0.049000
0.031190 0.049250 0.049000
0.031134 0.049000 0.049000
0.031000 0.048750 0.048898
0.031500 0.050278 0.048750
0.030933 0.048500 0.048750
0.044000 0.050500 0.051549
0.043250 0.050750 0.051546
0.044388 0.050250 0.051500
0.044500 0.050250 0.051388
0.044250 0.050358 0.051500
0.044049 0.050500 0.051500
0.044000 0.050517 0.051500
0.043750 0.050558 0.051500
0.043500 0.050692 0.051500
0.043387 0.050750 0.051500
0.043250 0.050856 0.051500
0.044547 0.050250 0.051250
0.043000 0.051047 0.051250
0.047500 0.047750 0.051757
0.047250 0.048000 0.051846
0.047503 0.047750 0.051750
0.047312 0.048000 0.051750
0.047500 0.047756 0.051750
0.047053 0.048250 0.051750
0.047250 0.048029 0.051750
0.047000 0.048398 0.051750
0.046911 0.048500 0.051750
0.046750 0.048564 0.051750
0.047527 0.047750 0.051500
0.047554 0.047500 0.051500
0.047500 0.047822 0.051500
0.046661 0.049000 0.051500
0.047566 0.047500 0.051250
0.047580 0.047250 0.051250
0.047750 0.047250 0.051047
0.048017 0.047000 0.051000
0.048000 0.047049 0.051000
0.047858 0.047250 0.051000
0.031750 0.050874 0.048500
0.031647 0.050750 0.048500
0.030750 0.047750 0.049028
0.030750 0.047844 0.049000
0.030750 0.048000 0.048878
0.030690 0.047750 0.049000
0.030647 0.047500 0.049000
0.030637 0.047250 0.049000
0.030500 0.047250 0.048836
0.030500 0.047000 0.048858
0.030920 0.048250 0.048750
0.030467 0.047250 0.048750
0.030456 0.047000 0.048750
0.030451 0.046750 0.048750
0.030250 0.046750 0.048528
0.030250 0.046500 0.048545
0.030190 0.046750 0.048500
0.030148 0.046500 0.048500
0.030000 0.046500 0.048313
0.030000 0.046250 0.048325
0.029976 0.046500 0.048250
0.029972 0.046250 0.048250
0.029945 0.046250 0.048000
0.029928 0.046250 0.047750
0.029750 0.046250 0.047550
0.029634 0.046250 0.047500
0.029500 0.046250 0.047338
0.029466 0.046250 0.047250
0.029434 0.046250 0.047000
0.048000 0.044250 0.052324
0.048000 0.044000 0.052311
0.048000 0.043750 0.052255
0.048029 0.044500 0.052250
0.048028 0.044250 0.052250
0.048023 0.044000 0.052250
0.048002 0.043750 0.052250
0.048000 0.043744 0.052250
0.047853 0.043500 0.052250
0.047750 0.043455 0.052250
0.047750 0.043250 0.052063
0.047750 0.043000 0.052048
0.048052 0.044750 0.052000
0.047903 0.043250 0.052000
0.047862 0.043000 0.052000
0.048000 0.042750 0.051756
0.048002 0.042750 0.051750
0.048000 0.042743 0.051750
0.028946 0.046250 0.046250
0.028750 0.046250 0.046028
0.046500 0.039250 0.051798
0.046250 0.039000 0.051875
0.046000 0.038750 0.051888
0.046559 0.039500 0.051750
0.045891 0.038500 0.051750
0.045750 0.038448 0.051750
0.040750 0.052250 0.053044
0.040500 0.052500 0.053200
0.040250 0.052750 0.053043
0.040000 0.053000 0.053028
0.040853 0.052250 0.053000
0.041000 0.052250 0.052777
0.040750 0.052369 0.053000
0.040661 0.052500 0.053000
0.040500 0.052660 0.053000
0.040366 0.052750 0.053000
0.040250 0.052848 0.053000
0.040028 0.053000 0.053000
0.040000 0.053010 0.053000
0.039750 0.053044 0.053000
0.041009 0.052250 0.052750
0.041058 0.052000 0.052750
0.041250 0.051750 0.052550
0.041000 0.052271 0.052750
0.041381 0.051750 0.052500
0.041500 0.051750 0.052339
0.041250 0.051889 0.052500
0.041187 0.052000 0.052500
0.047000 0.041000 0.052549
0.047500 0.042000 0.052321
0.047313 0.041750 0.052500
0.047250 0.041652 0.052500
0.047187 0.041500 0.052500
0.047058 0.041250 0.052500
0.047017 0.041000 0.052500
0.047000 0.040951 0.052500
0.046858 0.040750 0.052500
0.046750 0.040500 0.052387
0.046750 0.040454 0.052250
0.047750 0.042500 0.051879
0.046692 0.040000 0.052000
0.029419 0.046250 0.046750
0.029250 0.046250 0.046565
0.029087 0.046250 0.046500
0.029000 0.046250 0.046399
0.045250 0.049750 0.052045
0.046048 0.049250 0.052000
0.045852 0.049500 0.052000
0.046000 0.049365 0.052000
0.045750 0.049541 0.052000
0.045500 0.049685 0.052000
0.045378 0.049750 0.052000
0.045250 0.049851 0.052000
0.046500 0.048944 0.051750
0.046443 0.049000 0.051750
0.046500 0.049000 0.051700
0.046250 0.049067 0.051750
0.045000 0.050043 0.051750
0.044750 0.050069 0.051500
0.042500 0.051250 0.051349
0.042530 0.051250 0.051250
0.042750 0.051069 0.051250
0.042500 0.051315 0.051250
0.028750 0.046000 0.046045
0.028750 0.045750 0.046049
0.028647 0.046000 0.046000
0.028638 0.045750 0.046000
0.028636 0.045500 0.046000
0.028500 0.045500 0.045827
0.028500 0.045250 0.045827
0.028471 0.045500 0.045750
0.028471 0.045250 0.045750
0.028445 0.045250 0.045500
0.028445 0.045000 0.045500
0.028428 0.045000 0.045250
0.028250 0.045000 0.045049
0.028136 0.045000 0.045000
0.028000 0.045000 0.044827
0.027971 0.045000 0.044750
0.027945 0.045000 0.044500
0.027928 0.045000 0.044250
0.027750 0.045000 0.044049
0.027636 0.045000 0.044000
0.045500 0.037750 0.051778
0.045579 0.038250 0.051750
0.045558 0.038000 0.051750
0.045510 0.037750 0.051750
0.045500 0.037727 0.051750
0.045310 0.037500 0.051750
0.045250 0.037473 0.051750
0.045250 0.037450 0.051500
0.045050 0.037250 0.051500
0.045000 0.037127 0.051500
0.045068 0.037250 0.051250
0.045000 0.037055 0.051250
0.044945 0.037000 0.051250
0.045000 0.037000 0.051202
0.044750 0.036933 0.051250
0.044750 0.036750 0.051051
0.045000 0.036829 0.051000
0.044889 0.036750 0.051000
0.045000 0.036750 0.050888
0.045000 0.036613 0.050750
0.044887 0.036500 0.050750
0.045000 0.036500 0.050667
0.045000 0.036332 0.050500
0.044887 0.036250 0.050500
0.045000 0.036250 0.050387
0.032109 0.051000 0.048750
0.032000 0.050887 0.048750
0.032000 0.051000 0.048668
0.031750 0.050750 0.048544
0.033750 0.052850 0.049000
0.033633 0.052750 0.049000
0.033500 0.052657 0.049000
0.033341 0.052500 0.049000
0.033250 0.052376 0.049000
0.033000 0.052250 0.048839
0.034335 0.053500 0.048500
0.034500 0.053866 0.048000
0.029983 0.037750 0.045250
0.029941 0.037750 0.045000
0.029941 0.037500 0.044750
0.029983 0.036000 0.043500
0.030000 0.035750 0.043298
0.030000 0.035701 0.043250
0.029983 0.035500 0.043000
0.029934 0.035250 0.042250
0.029983 0.037250 0.044750
0.029941 0.037250 0.044500
0.029922 0.037250 0.044250
0.029941 0.037000 0.044250
0.029808 0.037000 0.044000
0.029750 0.037112 0.044000
0.029750 0.037000 0.043888
0.029633 0.040500 0.046500
0.029750 0.039954 0.046250
0.030000 0.039250 0.046399
0.030000 0.039000 0.046352
0.030000 0.038750 0.046272
0.030146 0.038500 0.046250
0.030250 0.038250 0.046046
0.029920 0.039750 0.046250
0.029933 0.039500 0.046250
0.029947 0.039250 0.046250
0.029959 0.039000 0.046250
0.029991 0.038750 0.046250
0.030000 0.038723 0.046250
0.030000 0.038500 0.046047
0.030142 0.038250 0.046000
0.030250 0.038113 0.046000
0.030250 0.038000 0.045887
0.030000 0.038452 0.046000
0.030142 0.038000 0.045750
0.030250 0.037954 0.045750
0.030250 0.037750 0.045546
0.030000 0.038000 0.045549
0.030142 0.037750 0.045500
0.030000 0.037951 0.045500
0.030000 0.037750 0.045299
0.030000 0.037701 0.045250
0.030000 0.037500 0.045049
0.029983 0.037500 0.045000
0.030000 0.037451 0.045000
0.029750 0.035125 0.042000
0.029750 0.035000 0.041875
0.029646 0.035000 0.041750
0.029750 0.034956 0.041750
0.029750 0.034750 0.041543
0.029500 0.035000 0.041547
0.029650 0.034750 0.041500
0.029500 0.034953 0.041500
0.029500 0.034750 0.041278
0.029490 0.034750 0.041250
0.029500 0.034727 0.041250
0.029629 0.034500 0.041000
0.029456 0.034750 0.041000
0.029500 0.034639 0.041000
0.029557 0.034500 0.040750
0.029500 0.034558 0.040750
0.029500 0.034500 0.040699
0.029339 0.034500 0.040500
0.029250 0.034632 0.040500
0.029250 0.034500 0.040336
0.029190 0.034500 0.040250
0.029250 0.034473 0.040250
0.029000 0.034639 0.040000
0.028934 0.034750 0.039750
0.028750 0.034750 0.039543
0.028649 0.034750 0.039500
0.028750 0.034632 0.039500
0.028750 0.034500 0.039335
0.028500 0.034953 0.039500
0.028690 0.034500 0.039250
0.028750 0.034473 0.039250
0.028634 0.034500 0.039000
0.028750 0.034451 0.039000
0.028750 0.034436 0.038750
0.028750 0.034250 0.038547
0.028640 0.034250 0.038500
0.028500 0.034250 0.038300
0.028483 0.034250 0.038250
0.028500 0.034200 0.038250
0.028442 0.034250 0.038000
0.028422 0.034250 0.037750
0.028250 0.034250 0.037545
0.028146 0.034250 0.037500
0.029420 0.032250 0.036250
0.029433 0.031750 0.035500
0.029420 0.031750 0.035250
0.029250 0.031611 0.035000
0.044500 0.027836 0.039000
0.044374 0.027750 0.039000
0.044500 0.027750 0.038873
0.044250 0.027500 0.038798
0.044544 0.027750 0.038750
0.044500 0.027647 0.038750
0.044298 0.027500 0.038750
0.044500 0.027500 0.038547
0.044250 0.027483 0.038750
0.044250 0.027442 0.038500
0.044250 0.027422 0.038250
0.044046 0.027250 0.038250
0.044250 0.027250 0.038046
0.044250 0.027142 0.038000
0.044250 0.027000 0.037799
0.044299 0.027000 0.037750
0.044500 0.027000 0.037548
0.044250 0.026983 0.037750
0.044500 0.026984 0.037500
0.044250 0.026942 0.037500
0.044250 0.026922 0.037250
0.027815 0.034500 0.037000
0.027750 0.034500 0.036847
0.027686 0.034500 0.036750
0.027750 0.034471 0.036750
0.027750 0.034451 0.036500
0.029132 0.031500 0.034500
0.029000 0.031250 0.033777
0.028991 0.031250 0.033750
0.028750 0.031454 0.033000
0.028500 0.031634 0.032750
0.044047 0.026750 0.037250
0.044000 0.026642 0.037250
0.043750 0.026441 0.037000
0.043500 0.026250 0.036887
0.043546 0.026250 0.036750
0.043500 0.026144 0.036750
0.043500 0.026000 0.036540
0.043500 0.025986 0.036500
0.043250 0.025953 0.036500
0.043250 0.025931 0.036250
0.043250 0.025750 0.036029
0.043348 0.025750 0.036000
0.043250 0.025687 0.036000
0.043500 0.025500 0.035529
0.043529 0.025500 0.035500
0.043500 0.025490 0.035500
0.043500 0.025455 0.035250
0.043750 0.025455 0.035000
0.028946 0.031250 0.032500
0.028621 0.031500 0.032500
0.028750 0.031447 0.032500
0.028449 0.031750 0.032500
0.028500 0.031624 0.032500
0.029054 0.031000 0.032250
0.029250 0.030932 0.032250
0.029250 0.030750 0.032050
0.028932 0.031250 0.032250
0.029000 0.031054 0.032250
0.029000 0.031000 0.032201
0.029119 0.030750 0.032000
0.029250 0.030611 0.032000
0.029250 0.030500 0.031850
0.029000 0.030837 0.032000
0.029000 0.030750 0.031839
0.029184 0.030500 0.031750
0.029250 0.030470 0.031750
0.029000 0.030687 0.031750
0.029140 0.030500 0.031500
0.029250 0.030454 0.031500
0.029131 0.030500 0.031250
0.029250 0.030450 0.031250
0.029250 0.030450 0.031000
0.029250 0.030450 0.030750
0.029250 0.030450 0.030250
0.043500 0.025431 0.034750
0.043250 0.025250 0.034546
0.043250 0.025145 0.034500
0.043250 0.025000 0.034279
0.043000 0.024957 0.034250
0.043000 0.024947 0.034000
0.043000 0.024943 0.033750
0.043000 0.024939 0.033500
0.043000 0.024930 0.033250
0.043000 0.024806 0.033000
0.043000 0.024750 0.032887
0.043250 0.024919 0.032750
0.043046 0.024750 0.032750
0.043250 0.024750 0.032546
0.043250 0.024645 0.032500
0.029250 0.030450 0.030000
0.029129 0.030500 0.029750
0.043000 0.024457 0.032250
0.043000 0.024447 0.032000
0.043000 0.024444 0.031750
0.043000 0.024444 0.031500
0.043000 0.024443 0.031250
0.043000 0.024443 0.031000
0.043250 0.024443 0.030750
0.043000 0.024443 0.030750
0.043250 0.024443 0.030500
0.043500 0.024443 0.030250
0.044000 0.024449 0.030000
0.043750 0.024444 0.030000
0.028586 0.030500 0.025750
0.028690 0.030000 0.025250
0.028750 0.029972 0.025250
0.028948 0.029750 0.024500
0.028945 0.029750 0.024250
0.028935 0.029750 0.024000
0.028750 0.029951 0.023250
0.028928 0.029750 0.021000
0.028945 0.029500 0.021000
0.028971 0.029250 0.020750
0.029000 0.029173 0.020750
0.029136 0.029000 0.020500
0.029250 0.028951 0.020500
0.029000 0.029173 0.020500
0.029136 0.029000 0.020250
0.029250 0.028951 0.020250
0.029250 0.028951 0.020000
0.029428 0.028750 0.019750
0.029428 0.028750 0.019500
0.029428 0.028750 0.019250
0.029250 0.028955 0.019000
0.029188 0.029000 0.018750
0.029250 0.028971 0.018750
0.029250 0.029000 0.018652
0.029311 0.029000 0.018500
0.029250 0.029120 0.018500
0.029250 0.029250 0.018455
0.029250 0.029437 0.018250
0.029128 0.029500 0.018000
0.032843 0.052000 0.049000
0.032750 0.051866 0.049000
0.032650 0.051750 0.049000
0.032500 0.051547 0.049000
0.032483 0.051500 0.049000
0.032421 0.051250 0.048750
0.032250 0.051052 0.048750
0.031250 0.049000 0.049049
0.031500 0.049750 0.048941
0.031088 0.048750 0.049000
0.043750 0.050500 0.051799
0.044047 0.050250 0.051750
0.044250 0.050250 0.051547
0.044000 0.050358 0.051750
0.043799 0.050500 0.051750
0.043750 0.050517 0.051750
0.043500 0.050558 0.051750
0.043250 0.050578 0.051750
0.043000 0.051000 0.051541
0.044500 0.050194 0.051500
0.043040 0.051000 0.051500
0.043000 0.051014 0.051500
0.047500 0.047500 0.052030
0.047250 0.047750 0.052045
0.047510 0.047500 0.052000
0.047500 0.047529 0.052000
0.047351 0.047750 0.052000
0.047041 0.048250 0.052000
0.047250 0.047878 0.052000
0.047185 0.048000 0.052000
0.046865 0.048500 0.052000
0.047000 0.048352 0.052000
0.046750 0.048549 0.052000
0.047543 0.047500 0.051750
0.047557 0.047250 0.051750
0.046567 0.048750 0.051750
0.047569 0.047250 0.051500
0.047750 0.046888 0.051500
0.047694 0.047000 0.051500
0.047750 0.047000 0.051388
0.048016 0.046750 0.051250
0.048000 0.046798 0.051250
0.047858 0.047000 0.051250
0.048000 0.047000 0.051049
0.047750 0.047046 0.051250
0.048058 0.046750 0.051000
0.048079 0.046750 0.050750
0.030750 0.047500 0.049045
0.030750 0.047250 0.049049
0.030750 0.047000 0.049050
0.030750 0.046750 0.049051
0.030815 0.048000 0.049000
0.030631 0.047000 0.049000
0.030627 0.046750 0.049000
0.030620 0.046500 0.049000
0.030500 0.046750 0.048869
0.030500 0.046500 0.048876
0.030449 0.046500 0.048750
0.030445 0.046250 0.048750
0.030250 0.046250 0.048548
0.030250 0.046000 0.048549
0.030138 0.046250 0.048500
0.030137 0.046000 0.048500
0.030000 0.046000 0.048327
0.029971 0.046000 0.048250
0.029945 0.046000 0.048000
0.029928 0.046000 0.047750
0.029750 0.046000 0.047551
0.029631 0.046000 0.047500
0.029500 0.046000 0.047358
0.029456 0.046000 0.047250
0.048000 0.044500 0.052326
0.047750 0.043500 0.052380
0.047750 0.042750 0.052029
0.047813 0.042750 0.052000
0.029000 0.046080 0.046500
0.028935 0.046000 0.046250
0.046354 0.039250 0.052000
0.046250 0.039125 0.052000
0.046167 0.039000 0.052000
0.046000 0.038829 0.052000
0.045892 0.038750 0.052000
0.045750 0.038500 0.051901
0.040000 0.052750 0.053382
0.039750 0.053000 0.053269
0.041000 0.052000 0.053090
0.040750 0.052064 0.053250
0.040567 0.052250 0.053250
0.040500 0.052444 0.053250
0.040443 0.052500 0.053250
0.040250 0.052566 0.053250
0.040045 0.052750 0.053250
0.040000 0.052853 0.053250
0.039771 0.053000 0.053250
0.039750 0.053007 0.053250
0.041023 0.052000 0.053000
0.041000 0.052062 0.053000
0.039500 0.053054 0.053000
0.041080 0.051750 0.052750
0.039250 0.053070 0.052750
0.039000 0.053250 0.052546
0.041500 0.051663 0.052500
0.039000 0.053353 0.052500
0.039000 0.053500 0.052312
0.039000 0.053524 0.052250
0.047000 0.041250 0.052797
0.047250 0.041750 0.052529
0.047056 0.041500 0.052750
0.047017 0.041250 0.052750
0.047000 0.041202 0.052750
0.046858 0.041000 0.052750
0.046750 0.040954 0.052750
0.046750 0.040750 0.052547
0.046750 0.040613 0.052500
0.046692 0.040500 0.052500
0.046559 0.040250 0.052500
0.046579 0.040250 0.052250
0.046559 0.040000 0.052250
0.046517 0.039750 0.052250
0.046559 0.039750 0.052000
0.046579 0.039750 0.051750
0.029314 0.046000 0.047000
0.029250 0.045845 0.047000
0.029250 0.046000 0.046879
0.029250 0.046045 0.046750
0.029146 0.046000 0.046750
0.045029 0.050000 0.052000
0.044750 0.050057 0.051750
0.042250 0.051250 0.051546
0.042500 0.051187 0.051500
0.042381 0.051250 0.051500
0.032305 0.051000 0.049000
0.032250 0.050901 0.049000
0.032250 0.051000 0.048901
0.032110 0.050750 0.049000
0.032000 0.050666 0.049000
0.032000 0.050750 0.048887
0.031842 0.050500 0.049000
0.031750 0.050500 0.048867
0.031950 0.050750 0.048750
0.031750 0.050543 0.048750
0.031650 0.050500 0.048750
0.034000 0.053000 0.049054
0.033750 0.052750 0.049043
0.033500 0.052500 0.049165
0.033250 0.052250 0.049048
0.034000 0.053018 0.049000
0.033949 0.053000 0.049000
0.033124 0.052250 0.049000
0.033000 0.052159 0.049000
0.034250 0.053080 0.048750
0.030000 0.036250 0.043799
0.030143 0.036000 0.043750
0.030250 0.035750 0.043545
0.029922 0.036750 0.043750
0.029941 0.036500 0.043750
0.029983 0.036250 0.043750
0.030000 0.036201 0.043750
0.030000 0.036000 0.043549
0.030145 0.035750 0.043500
0.030250 0.035625 0.043500
0.030250 0.035500 0.043375
0.030000 0.035951 0.043500
0.030146 0.035500 0.043250
0.030250 0.035456 0.043250
0.030250 0.035250 0.043043
0.030000 0.035500 0.043047
0.030150 0.035250 0.043000
0.030000 0.035453 0.043000
0.030000 0.035250 0.042778
0.029990 0.035250 0.042750
0.030000 0.035227 0.042750
0.030129 0.035000 0.042500
0.029956 0.035250 0.042500
0.030000 0.035139 0.042500
0.030056 0.035000 0.042250
0.030000 0.035058 0.042250
0.030000 0.035000 0.042201
0.029833 0.035000 0.042000
0.030000 0.037250 0.044799
0.030000 0.037201 0.044750
0.029983 0.037000 0.044500
0.029941 0.036750 0.044000
0.029750 0.040000 0.046381
0.030088 0.039250 0.046500
0.030134 0.039000 0.046500
0.030250 0.038500 0.046379
0.029977 0.039500 0.046500
0.030000 0.039411 0.046500
0.030250 0.038455 0.046250
0.030308 0.038000 0.046000
0.030250 0.037613 0.045500
0.030142 0.037500 0.045250
0.029750 0.034633 0.041500
0.028839 0.034500 0.039500
0.028920 0.034250 0.038750
0.028750 0.034112 0.038500
0.028643 0.034000 0.038250
0.028500 0.034000 0.038048
0.028483 0.034000 0.038000
0.029250 0.032750 0.037050
0.028750 0.033250 0.037044
0.029313 0.032500 0.037000
0.029118 0.032750 0.037000
0.029250 0.032611 0.037000
0.029250 0.032500 0.036853
0.028839 0.033000 0.037000
0.029000 0.032837 0.037000
0.029000 0.032750 0.036841
0.028647 0.033250 0.037000
0.028750 0.033131 0.037000
0.028477 0.033500 0.037000
0.028500 0.033438 0.037000
0.029447 0.032250 0.036750
0.029500 0.032000 0.036588
0.029181 0.032500 0.036750
0.029250 0.032469 0.036750
0.028250 0.033936 0.036750
0.029433 0.032250 0.036500
0.029477 0.032000 0.036500
0.029500 0.031938 0.036500
0.029500 0.031750 0.036278
0.029442 0.032000 0.036250
0.029491 0.031750 0.036250
0.029500 0.031727 0.036250
0.029459 0.031750 0.036000
0.029500 0.031648 0.036000
0.029589 0.031500 0.035750
0.029447 0.031750 0.035750
0.029500 0.031602 0.035750
0.029500 0.031500 0.035587
0.029477 0.031500 0.035500
0.029500 0.031438 0.035500
0.029442 0.031500 0.035250
0.029313 0.031500 0.035000
0.029250 0.031500 0.034852
0.029182 0.031500 0.034750
0.029250 0.031470 0.034750
0.044387 0.028000 0.039250
0.044500 0.028000 0.039168
0.044250 0.027750 0.039044
0.044250 0.027646 0.039000
0.044000 0.027442 0.038750
0.044000 0.027308 0.038500
0.043888 0.027250 0.038500
0.044000 0.027250 0.038387
0.044000 0.027142 0.038250
0.044000 0.027000 0.038049
0.044049 0.027000 0.038000
0.044000 0.026983 0.038000
0.044000 0.026942 0.037750
0.044000 0.026808 0.037500
0.029250 0.031450 0.034500
0.029250 0.031436 0.034250
0.029250 0.031250 0.034044
0.029147 0.031250 0.034000
0.029000 0.031228 0.033750
0.028961 0.031250 0.033500
0.029000 0.031154 0.033500
0.044000 0.026750 0.037387
0.043750 0.026500 0.037299
0.043799 0.026500 0.037250
0.043750 0.026483 0.037250
0.043500 0.026441 0.037250
0.043250 0.026250 0.037046
0.043500 0.026308 0.037000
0.043386 0.026250 0.037000
0.043250 0.026145 0.037000
0.043250 0.026000 0.036783
0.043283 0.026000 0.036750
0.043250 0.025989 0.036750
0.043000 0.025941 0.036500
0.043000 0.025927 0.036250
0.043000 0.025750 0.036048
0.043250 0.025500 0.035756
0.043000 0.025639 0.036000
0.043000 0.025500 0.035819
0.043257 0.025500 0.035750
0.043250 0.025498 0.035750
0.043000 0.025475 0.035750
0.043250 0.025457 0.035500
0.043000 0.025448 0.035500
0.043250 0.025443 0.035250
0.043500 0.025442 0.035000
0.043250 0.025431 0.035000
0.029126 0.031000 0.032750
0.028949 0.031250 0.032750
0.029000 0.031127 0.032750
0.028630 0.031500 0.032750
0.028750 0.031450 0.032750
0.029115 0.031000 0.032500
0.029250 0.030946 0.032500
0.029000 0.031115 0.032500
0.029420 0.030750 0.032250
0.029442 0.030500 0.032250
0.029313 0.030500 0.032000
0.029452 0.030250 0.031750
0.029450 0.030250 0.031500
0.029450 0.030250 0.031250
0.029500 0.030129 0.031250
0.029450 0.030250 0.031000
0.029450 0.030250 0.030750
0.043250 0.025419 0.034750
0.043000 0.025000 0.034528
0.043028 0.025000 0.034500
0.043000 0.024990 0.034500
0.042750 0.024944 0.034000
0.042750 0.024939 0.033750
0.042750 0.024931 0.033500
0.042750 0.024919 0.033250
0.042887 0.024750 0.033000
0.043000 0.024645 0.032750
0.029450 0.030250 0.030500
0.029250 0.030450 0.029750
0.043000 0.024500 0.032530
0.043029 0.024500 0.032500
0.043000 0.024490 0.032500
0.042750 0.024447 0.032250
0.042750 0.024444 0.032000
0.042750 0.024444 0.031750
0.042750 0.024443 0.031500
0.042750 0.024443 0.031250
0.042750 0.024443 0.031000
0.042750 0.024443 0.030750
0.043000 0.024443 0.030500
0.043250 0.024443 0.030250
0.043500 0.024443 0.030000
0.028620 0.030500 0.026000
0.028750 0.030447 0.026000
0.028449 0.030750 0.026000
0.028500 0.030623 0.026000
0.028137 0.031000 0.026000
0.028250 0.030951 0.026000
0.027928 0.031750 0.026000
0.027945 0.031500 0.026000
0.027971 0.031250 0.026000
0.028000 0.031173 0.026000
0.028920 0.030250 0.025750
0.028750 0.030436 0.025750
0.028750 0.030250 0.025545
0.028816 0.030000 0.025500
0.028750 0.030121 0.025500
0.028750 0.030000 0.025344
0.028952 0.029750 0.025250
0.028950 0.029750 0.025000
0.029000 0.029630 0.025000
0.028949 0.029750 0.024750
0.029000 0.029628 0.024750
0.029000 0.029623 0.024500
0.029000 0.029598 0.024250
0.028930 0.029750 0.023750
0.028971 0.029250 0.021000
0.029136 0.029000 0.020750
0.029428 0.028750 0.020250
0.029428 0.028750 0.020000
0.029428 0.028750 0.019000
0.029430 0.028750 0.018750
0.029418 0.029250 0.018250
0.029250 0.029448 0.018000
0.028928 0.029750 0.021250
0.028945 0.029500 0.021250
0.028636 0.030000 0.021250
0.028750 0.029951 0.021250
0.028445 0.030500 0.021250
0.028471 0.030250 0.021250
0.028500 0.030173 0.021250
0.029136 0.029000 0.021000
0.029000 0.029173 0.021000
0.029250 0.028951 0.020750
0.029428 0.028750 0.020500
0.029445 0.028500 0.020000
0.029445 0.028500 0.019750
0.029445 0.028500 0.019500
0.029445 0.028500 0.019250
0.032750 0.051750 0.049043
0.032500 0.051500 0.049047
0.032441 0.051250 0.049000
0.031500 0.049500 0.049165
0.031250 0.048750 0.049064
0.031000 0.048500 0.049062
0.031557 0.049750 0.049000
0.031500 0.049699 0.049000
0.031000 0.048588 0.049000
0.030977 0.048500 0.049000
0.030942 0.048250 0.049000
0.043750 0.050250 0.052047
0.043500 0.050500 0.052049
0.044000 0.050194 0.052000
0.043888 0.050250 0.052000
0.044000 0.050250 0.051888
0.043750 0.050358 0.052000
0.043549 0.050500 0.052000
0.043500 0.050517 0.052000
0.043250 0.050558 0.052000
0.043000 0.050750 0.051887
0.044500 0.050069 0.051750
0.044250 0.050081 0.051750
0.043046 0.050750 0.051750
0.043000 0.050857 0.051750
0.042798 0.051000 0.051750
0.042750 0.051056 0.051500
0.047500 0.047250 0.052281
0.047250 0.047500 0.052386
0.047000 0.048250 0.052277
0.047510 0.047250 0.052250
0.047500 0.047281 0.052250
0.047355 0.047500 0.052250
0.047009 0.048250 0.052250
0.047057 0.048000 0.052250
0.047250 0.047546 0.052250
0.047078 0.047750 0.052250
0.046809 0.048500 0.052250
0.047000 0.048272 0.052250
0.047545 0.047250 0.052000
0.047558 0.047000 0.052000
0.047569 0.047000 0.051750
0.047581 0.046750 0.051750
0.047750 0.046750 0.051546
0.048014 0.046500 0.051500
0.048000 0.046540 0.051500
0.047857 0.046750 0.051500
0.048000 0.046750 0.051298
0.048056 0.046500 0.051250
0.048187 0.046500 0.051000
0.048250 0.046500 0.050878
0.048351 0.046500 0.050750
0.048250 0.046545 0.050750
0.030952 0.047750 0.049250
0.030949 0.047500 0.049250
0.030945 0.047250 0.049250
0.030750 0.046500 0.049054
0.030500 0.046250 0.048902
0.047750 0.044000 0.052546
0.047750 0.043750 0.052529
0.047862 0.044250 0.052500
0.047853 0.044000 0.052500
0.047812 0.043750 0.052500
0.047750 0.043652 0.052500
0.047689 0.043500 0.052500
0.047569 0.043250 0.052500
0.047582 0.043250 0.052250
0.047573 0.043000 0.052250
0.047569 0.042750 0.052250
0.047750 0.042652 0.052000
0.047688 0.042500 0.052000
0.029000 0.046000 0.046554
0.028980 0.046000 0.046500
0.028954 0.045750 0.046500
0.028930 0.045750 0.046250
0.046250 0.039250 0.052045
0.046000 0.039000 0.052200
0.045750 0.038750 0.052053
0.045500 0.038000 0.052047
0.046500 0.039451 0.052000
0.045750 0.038598 0.052000
0.045696 0.038500 0.052000
0.045559 0.038250 0.052000
0.045517 0.038000 0.052000
0.045500 0.037954 0.052000
0.030935 0.047000 0.049250
0.030929 0.046750 0.049250
0.030750 0.046250 0.049064
0.030586 0.046250 0.049000
0.030500 0.046081 0.049000
0.030480 0.046000 0.049000
0.030435 0.046000 0.048750
0.030250 0.045750 0.048549
0.030136 0.045750 0.048500
0.030000 0.045750 0.048328
0.029971 0.045750 0.048250
0.029945 0.045750 0.048000
0.029928 0.045750 0.047750
0.029750 0.045750 0.047551
0.029628 0.045750 0.047500
0.029500 0.045750 0.047369
0.029451 0.045750 0.047250
0.039750 0.052750 0.053540
0.040553 0.052250 0.053500
0.040750 0.052053 0.053500
0.040372 0.052500 0.053500
0.040500 0.052381 0.053500
0.040250 0.052547 0.053500
0.040000 0.052689 0.053500
0.039873 0.052750 0.053500
0.039750 0.052838 0.053500
0.039500 0.053000 0.053379
0.041000 0.051903 0.053250
0.040914 0.052000 0.053250
0.039500 0.053034 0.053250
0.041067 0.051750 0.053000
0.039250 0.053055 0.053000
0.041250 0.051568 0.052750
0.039000 0.053071 0.052750
0.046517 0.040000 0.052500
0.046500 0.039750 0.052299
0.046500 0.039701 0.052250
0.046517 0.039500 0.052000
0.029250 0.045750 0.047028
0.029190 0.045750 0.047000
0.046000 0.049250 0.052335
0.045750 0.049500 0.052277
0.046027 0.049250 0.052250
0.046250 0.049029 0.052250
0.045772 0.049500 0.052250
0.046000 0.049309 0.052250
0.045750 0.049509 0.052250
0.045500 0.049557 0.052250
0.045250 0.049578 0.052250
0.045000 0.050000 0.052030
0.046373 0.049000 0.052000
0.046500 0.048873 0.052000
0.046250 0.049050 0.052000
0.045000 0.050010 0.052000
0.028928 0.045500 0.046250
0.028750 0.045500 0.046049
0.028750 0.045250 0.046050
0.028750 0.045000 0.046050
0.028636 0.045250 0.046000
0.028636 0.045000 0.046000
0.028500 0.045000 0.045827
0.028471 0.045000 0.045750
0.028471 0.044750 0.045750
0.028445 0.044750 0.045500
0.028428 0.044750 0.045250
0.028250 0.044750 0.045049
0.028136 0.044750 0.045000
0.028000 0.044750 0.044827
0.027971 0.044750 0.044750
0.027945 0.044750 0.044500
0.027928 0.044750 0.044250
0.032250 0.050750 0.049052
0.032116 0.050500 0.049250
0.032000 0.050355 0.049250
0.032000 0.050500 0.049161
0.031750 0.050250 0.049027
0.031750 0.050000 0.049050
0.031750 0.050335 0.049000
0.031690 0.050250 0.049000
0.031629 0.050000 0.049000
0.033750 0.052550 0.049250
0.033614 0.052500 0.049250
0.033500 0.052386 0.049250
0.033450 0.052250 0.049250
0.033250 0.052050 0.049250
0.033114 0.052000 0.049250
0.033000 0.052000 0.049165
0.030250 0.037500 0.045387
0.030250 0.037454 0.045250
0.030142 0.037250 0.045000
0.030000 0.036500 0.044049
0.030142 0.036250 0.044000
0.030250 0.036000 0.043886
0.029983 0.036500 0.044000
0.030000 0.036451 0.044000
0.030250 0.035954 0.043750
0.030333 0.035500 0.043500
0.030250 0.035133 0.043000
0.030250 0.037250 0.045047
0.030250 0.037112 0.045000
0.030250 0.037000 0.044887
0.030142 0.037000 0.044750
0.030250 0.036954 0.044750
0.030250 0.036750 0.044547
0.030000 0.037000 0.044549
0.030142 0.036750 0.044500
0.030000 0.036951 0.044500
0.030000 0.036750 0.044299
0.029983 0.036750 0.044250
0.030000 0.036701 0.044250
